0 0 0 0 0 0 0 0 0 0 0 0 0 0 0 0 0 0 0 0 0 0 0 0 0 0 0 0 0 0 0 0 0 0 0 0 0 0 0 0 0 0 0 0 0 0 0 0 0 0 0 0 0 0 0 0 0 0 0 0 0 0 0 0 0 0 0 0 0 0 0 0 0 0 0 0 0 0 0 0 0 0 0 0 0 0 0 0 0 0 0 0 0 0 0 0 0 0 0 0 0 0 0 0 0 0 0 0 0 0 0 0 0 0 0 0 97 99 92 92 90 92 93 96 100 100 101 100 97 97 97 96 101 100 100 95 95 95 96 97 97 100 100 100 98 101 100 101 104 103 103 101 98 98 98 98 96 97 93 90 89 89 91 90 89 88 88 87 92 93 93 90 89 90 90 89 99 94 90 88 89 89 90 91 90 91 96 97 97 98 100 91 91 90 94 95 95 92 90 91 92 88 88 89 90 94 91 89 91 95 93 94 90 89 89 92 96 94 92 89 92 90 91 93 98 100 100 95 92 93 92 93 98 100 104 103 103 104 105 106 108 105 102 88 89 88 88 88 91 90 89 90 92 91 91 91 90 94 93 93 100 99 98 102 97 96 99 98 97 98 97 99 100 98 101 104 104 106 105 102 100 99 97 99 100 102 101 99 100 102 100 97 105 104 100 100 98 107 104 104 104 101 111 107 103 105 106 106 107 107 106 105 104 104 102 104 107 110 109 109 111 108 107 109 106 108 108 109 103 102 109 110 110 110 109 109 115 117 117 111 107 107 114 115 110 110 111 109 114 115 115 116 111 114 111 112 115 114 111 115 113 116 114 0 0 0 0 0 0 0 0 0 0 0 0 0 0 0 0 0 0 0 0 0 0 0 0 0 0 0 0 0 0 0 0 0 0 0 0 0 0 0 0 0 0 0 0 0 0 0 0 0 0 0 0 0 0 0 0 0 0 0 0 0 0 0 0 0
0 0 0 0 0 0 0 0 0 0 0 0 0 0 0 0 0 0 0 0 0 0 0 0 0 0 0 0 0 0 0 0 0 0 0 0 0 0 0 0 0 0 0 0 0 0 0 0 0 0 0 0 0 0 0 0 0 0 0 0 0 0 0 0 0 0 0 0 0 0 0 0 0 0 0 0 0 0 0 0 0 0 0 0 0 0 0 0 0 0 0 0 0 0 0 0 0 0 0 0 0 0 0 0 0 0 0 0 0 0 0 0 0 0 0 100 101 92 91 92 90 93 97 98 97 94 90 92 95 99 92 91 91 92 91 93 94 95 96 98 98 98 100 98 95 97 98 98 97 97 95 97 96 96 93 95 91 91 97 88 90 91 91 90 90 88 88 88 87 87 87 89 90 89 89 90 89 89 89 90 88 89 90 90 92 90 92 95 95 99 97 95 94 91 92 93 94 89 93 96 96 89 89 94 93 94 92 89 88 93 89 92 90 88 89 92 93 93 91 90 90 95 91 91 103 104 100 97 94 93 93 97 98 100 103 105 104 106 107 107 108 104 101 88 88 87 88 88 90 90 90 90 92 91 91 91 90 95 94 93 96 95 99 104 101 98 101 98 97 97 99 101 100 100 98 99 102 104 104 104 103 102 99 100 101 101 101 101 98 101 101 101 108 105 103 97 108 107 103 103 105 105 109 104 104 104 102 106 107 107 103 103 106 102 101 103 107 108 109 110 109 108 109 105 105 107 108 106 107 103 104 112 111 107 108 107 111 115 116 110 109 108 106 111 108 111 108 106 115 112 114 113 113 113 115 112 118 118 114 113 110 113 114 112 105 0 0 0 0 0 0 0 0 0 0 0 0 0 0 0 0 0 0 0 0 0 0 0 0 0 0 0 0 0 0 0 0 0 0 0 0 0 0 0 0 0 0 0 0 0 0 0 0 0 0 0 0 0 0 0 0 0 0 0 0 0 0 0
0 0 0 0 0 0 0 0 0 0 0 0 0 0 0 0 0 0 0 0 0 0 0 0 0 0 0 0 0 0 0 0 0 0 0 0 0 0 0 0 0 0 0 0 0 0 0 0 0 0 0 0 0 0 0 0 0 0 0 0 0 0 0 0 0 0 0 0 0 0 0 0 0 0 0 0 0 0 0 0 0 0 0 0 0 0 0 0 0 0 0 0 0 0 0 0 0 0 0 0 0 0 0 0 0 0 0 0 0 0 0 0 0 93 95 96 94 91 90 90 90 89 89 89 89 91 90 91 90 89 88 88 89 89 89 89 90 95 99 97 97 98 94 91 92 92 91 94 94 96 92 90 93 91 87 87 88 86 88 89 90 89 87 87 88 88 87 87 86 86 84 82 85 89 90 89 89 87 86 87 88 86 87 88 89 89 88 95 95 97 97 95 94 91 91 94 93 88 90 91 89 89 88 92 91 91 92 89 88 89 91 87 86 87 88 88 92 90 88 89 89 92 90 90 102 103 100 98 97 94 94 97 98 100 103 103 105 106 108 110 104 103 88 88 88 87 88 88 89 94 94 92 92 94 91 90 90 95 95 94 96 98 97 100 99 98 102 102 100 99 100 101 102 103 104 104 104 102 102 106 106 105 103 100 104 103 105 105 109 112 111 107 105 97 102 108 110 105 104 104 102 105 107 107 103 110 113 110 110 108 106 104 104 103 105 105 107 110 110 111 112 110 110 109 111 108 108 104 105 104 105 111 111 109 108 107 112 116 110 111 113 112 108 110 110 116 109 104 119 114 116 112 109 107 108 112 114 115 113 110 111 113 114 110 104 0 0 0 0 0 0 0 0 0 0 0 0 0 0 0 0 0 0 0 0 0 0 0 0 0 0 0 0 0 0 0 0 0 0 0 0 0 0 0 0 0 0 0 0 0 0 0 0 0 0 0 0 0 0 0 0 0 0 0 0 0 0 0
0 0 0 0 0 0 0 0 0 0 0 0 0 0 0 0 0 0 0 0 0 0 0 0 0 0 0 0 0 0 0 0 0 0 0 0 0 0 0 0 0 0 0 0 0 0 0 0 0 0 0 0 0 0 0 0 0 0 0 0 0 0 0 0 0 0 0 0 0 0 0 0 0 0 0 0 0 0 0 0 0 0 0 0 0 0 0 0 0 0 0 0 0 0 0 0 0 0 0 0 0 0 0 0 0 0 0 0 0 0 0 0 92 96 88 89 89 91 90 92 91 90 89 89 90 92 91 91 90 90 87 86 87 88 88 88 88 96 95 96 96 94 94 92 92 87 91 91 92 93 89 89 88 87 87 88 87 88 90 88 88 88 88 91 88 88 90 88 88 87 86 86 84 85 85 90 89 89 88 86 87 89 87 87 88 90 90 92 93 94 95 100 96 92 90 93 92 89 93 88 87 89 87 90 94 93 93 89 88 91 92 91 90 86 85 89 90 91 89 89 90 91 91 90 92 98 97 98 97 93 95 98 101 99 100 102 103 105 109 110 109 101 87 89 88 88 89 89 90 95 95 95 92 93 91 90 94 94 94 94 96 99 97 98 97 100 100 100 100 102 101 102 101 102 103 103 103 103 101 104 106 105 104 104 103 102 104 106 106 109 111 111 100 100 105 115 114 106 102 102 105 101 108 106 110 109 109 108 109 109 106 103 104 108 107 109 109 110 109 107 107 108 109 109 110 107 106 103 105 104 107 108 109 109 108 106 105 108 108 109 112 112 110 112 110 113 110 106 116 111 110 115 116 113 108 114 117 117 116 113 115 111 111 108 0 0 0 0 0 0 0 0 0 0 0 0 0 0 0 0 0 0 0 0 0 0 0 0 0 0 0 0 0 0 0 0 0 0 0 0 0 0 0 0 0 0 0 0 0 0 0 0 0 0 0 0 0 0 0 0 0 0 0 0 0 0 0 0
0 0 0 0 0 0 0 0 0 0 0 0 0 0 0 0 0 0 0 0 0 0 0 0 0 0 0 0 0 0 0 0 0 0 0 0 0 0 0 0 0 0 0 0 0 0 0 0 0 0 0 0 0 0 0 0 0 0 0 0 0 0 0 0 0 0 0 0 0 0 0 0 0 0 0 0 0 0 0 0 0 0 0 0 0 0 0 0 0 0 0 0 0 0 0 0 0 0 0 0 0 0 0 0 0 0 0 0 0 0 0 227 94 88 89 92 95 95 95 95 97 96 93 95 95 95 96 93 96 96 92 89 89 92 88 89 93 96 97 96 94 86 87 88 89 85 89 87 87 89 90 89 87 87 87 88 89 89 88 88 91 93 96 100 101 88 88 89 90 88 88 87 87 85 87 88 89 89 88 89 87 88 89 87 89 88 91 92 93 95 98 101 101 94 91 92 93 92 93 86 88 88 88 90 93 92 90 89 87 90 92 92 92 87 86 87 88 90 89 91 93 92 90 91 91 97 96 96 94 91 92 96 97 97 100 104 104 103 107 105 108 88 88 88 87 90 90 89 89 92 92 95 93 91 92 89 94 94 101 99 96 98 96 97 100 97 97 100 101 101 101 100 100 102 101 102 101 103 103 104 108 107 103 102 102 103 104 105 106 104 109 109 102 97 95 112 113 111 104 99 109 108 107 108 107 109 112 110 110 110 108 105 106 108 105 105 110 110 109 109 111 106 107 108 109 108 106 105 107 108 108 108 108 109 110 106 104 106 106 108 111 114 111 111 112 111 111 116 115 112 111 117 118 115 111 113 118 121 121 117 116 115 113 0 0 0 0 0 0 0 0 0 0 0 0 0 0 0 0 0 0 0 0 0 0 0 0 0 0 0 0 0 0 0 0 0 0 0 0 0 0 0 0 0 0 0 0 0 0 0 0 0 0 0 0 0 0 0 0 0 0 0 0 0 0 0 0 0
0 0 0 0 0 0 0 0 0 0 0 0 0 0 0 0 0 0 0 0 0 0 0 0 0 0 0 0 0 0 0 0 0 0 0 0 0 0 0 0 0 0 0 0 0 0 0 0 0 0 0 0 0 0 0 0 0 0 0 0 0 0 0 0 0 0 0 0 0 0 0 0 0 0 0 0 0 0 0 0 0 0 0 0 0 0 0 0 0 0 0 0 0 0 0 0 0 0 0 0 0 0 0 0 0 0 0 0 0 0 100 98 93 88 89 92 96 95 96 95 97 96 93 97 97 96 96 92 96 96 94 89 90 92 90 90 93 94 92 88 87 86 86 86 86 86 86 86 86 87 90 90 87 87 86 88 89 88 88 89 95 97 102 99 102 101 90 88 88 87 88 87 87 87 86 90 93 90 89 89 89 88 88 89 88 89 92 91 93 96 100 100 102 99 95 98 99 99 96 97 88 87 87 92 92 90 91 89 91 87 87 89 88 94 94 91 88 93 97 95 96 92 91 91 91 97 96 96 94 93 95 95 97 101 103 104 105 105 105 102 97 88 87 87 88 90 89 89 90 89 91 93 91 93 91 89 93 94 103 100 100 96 97 96 97 96 96 97 100 100 100 100 99 99 99 101 102 102 102 104 106 108 104 102 101 101 102 105 106 109 111 110 108 106 106 103 103 109 107 105 100 107 109 108 110 109 108 109 110 109 109 108 104 104 105 106 108 107 105 104 105 105 108 105 107 107 109 111 109 107 106 107 106 106 109 107 105 106 106 107 108 111 109 114 112 109 108 114 114 115 115 114 116 115 115 111 112 120 123 120 120 115 0 0 0 0 0 0 0 0 0 0 0 0 0 0 0 0 0 0 0 0 0 0 0 0 0 0 0 0 0 0 0 0 0 0 0 0 0 0 0 0 0 0 0 0 0 0 0 0 0 0 0 0 0 0 0 0 0 0 0 0 0 0 0 0 0 0
0 0 0 0 0 0 0 0 0 0 0 0 0 0 0 0 0 0 0 0 0 0 0 0 0 0 0 0 0 0 0 0 0 0 0 0 0 0 0 0 0 0 0 0 0 0 0 0 0 0 0 0 0 0 0 0 0 0 0 0 0 0 0 0 0 0 0 0 0 0 0 0 0 0 0 0 0 0 0 0 0 0 0 0 0 0 0 0 0 0 0 0 0 0 0 0 0 0 0 0 0 0 0 0 0 0 0 0 103 103 100 98 91 90 90 91 96 91 91 91 92 91 92 90 90 92 91 91 91 91 92 90 91 92 91 91 102 101 90 90 90 90 90 90 90 90 90 90 90 89 89 88 87 87 88 89 89 89 89 96 97 101 100 101 102 100 90 87 87 90 93 92 88 88 87 87 94 94 92 89 89 89 89 89 89 88 89 92 94 98 99 98 101 101 102 103 103 104 101 100 95 88 87 89 93 91 93 93 93 92 88 88 89 92 94 94 94 96 96 97 96 93 91 92 92 95 98 96 93 93 95 95 97 100 104 105 105 105 105 104 89 88 87 87 89 90 89 89 90 90 90 91 93 92 91 90 94 107 105 98 99 97 97 96 96 96 96 96 97 99 98 97 97 98 99 100 101 100 100 102 107 109 104 101 103 102 103 105 105 108 111 108 109 110 108 106 106 107 109 105 106 107 110 110 107 108 108 109 108 110 108 109 105 103 107 109 108 105 105 103 104 103 105 107 111 108 110 108 108 108 108 106 103 102 109 107 110 108 106 108 107 111 109 108 108 107 111 112 114 113 115 113 113 115 113 115 114 112 118 118 118 0 0 0 0 0 0 0 0 0 0 0 0 0 0 0 0 0 0 0 0 0 0 0 0 0 0 0 0 0 0 0 0 0 0 0 0 0 0 0 0 0 0 0 0 0 0 0 0 0 0 0 0 0 0 0 0 0 0 0 0 0 0 0 0 0 0 0
0 0 0 0 0 0 0 0 0 0 0 0 0 0 0 0 0 0 0 0 0 0 0 0 0 0 0 0 0 0 0 0 0 0 0 0 0 0 0 0 0 0 0 0 0 0 0 0 0 0 0 0 0 0 0 0 0 0 0 0 0 0 0 0 0 0 0 0 0 0 0 0 0 0 0 0 0 0 0 0 0 0 0 0 0 0 0 0 0 0 0 0 0 0 0 0 0 0 0 0 0 0 0 0 0 0 0 0 98 100 101 97 91 98 90 91 94 94 92 89 93 94 94 92 95 94 93 90 91 89 90 89 91 92 91 92 90 89 89 88 88 88 88 88 89 88 88 88 88 89 88 88 89 88 89 88 88 89 93 93 95 98 98 101 103 98 91 89 88 88 93 91 88 88 87 87 95 95 95 89 89 89 89 88 89 90 88 89 95 95 93 94 97 98 104 104 103 102 100 101 100 95 87 87 88 89 89 89 87 88 88 87 88 88 94 93 93 88 96 97 96 92 91 91 91 95 96 96 91 92 94 98 100 99 101 96 97 99 99 95 89 88 88 87 89 89 89 89 90 89 90 89 90 92 90 90 100 107 107 102 97 97 96 97 97 97 98 97 97 96 100 100 100 102 100 101 101 103 99 101 105 104 101 102 100 102 105 105 105 105 106 105 107 107 108 104 107 107 106 105 106 107 108 111 108 109 111 107 111 110 109 108 104 107 107 110 107 105 106 106 105 102 106 109 110 107 107 108 110 104 111 110 105 103 101 101 109 110 110 111 107 105 108 107 108 109 110 113 114 112 112 111 110 112 113 114 111 110 112 115 0 0 0 0 0 0 0 0 0 0 0 0 0 0 0 0 0 0 0 0 0 0 0 0 0 0 0 0 0 0 0 0 0 0 0 0 0 0 0 0 0 0 0 0 0 0 0 0 0 0 0 0 0 0 0 0 0 0 0 0 0 0 0 0 0 0 0 0
0 0 0 0 0 0 0 0 0 0 0 0 0 0 0 0 0 0 0 0 0 0 0 0 0 0 0 0 0 0 0 0 0 0 0 0 0 0 0 0 0 0 0 0 0 0 0 0 0 0 0 0 0 0 0 0 0 0 0 0 0 0 0 0 0 0 0 0 0 0 0 0 0 0 0 0 0 0 0 0 0 0 0 0 0 0 0 0 0 0 0 0 0 0 0 0 0 0 0 0 0 0 0 0 0 0 0 95 95 99 100 98 88 89 89 90 96 94 94 90 93 95 94 90 93 94 92 90 90 91 90 90 91 93 91 90 91 90 90 89 90 90 90 89 90 90 90 90 90 89 88 87 89 89 88 89 89 95 93 95 94 94 94 97 99 99 92 89 91 91 89 93 91 89 88 88 89 94 94 95 91 89 89 89 88 89 90 92 95 96 93 91 94 95 97 100 97 99 100 98 99 100 97 88 88 88 88 87 87 90 94 91 88 87 88 95 94 90 96 98 95 94 91 91 90 93 93 94 92 94 96 100 102 102 100 96 95 95 92 92 93 90 87 88 89 90 90 89 91 90 90 89 91 91 89 91 101 106 104 102 101 95 96 97 97 96 95 95 96 100 103 103 104 104 102 101 101 102 101 100 104 106 104 101 99 103 105 105 105 105 105 106 107 107 108 106 106 108 109 106 106 107 108 109 110 109 111 108 110 109 110 109 106 103 105 108 106 105 105 106 104 107 107 110 106 104 105 107 109 102 107 108 108 105 102 99 102 106 108 110 106 105 106 107 111 109 110 111 112 111 109 114 113 110 112 111 115 113 113 100 0 0 0 0 0 0 0 0 0 0 0 0 0 0 0 0 0 0 0 0 0 0 0 0 0 0 0 0 0 0 0 0 0 0 0 0 0 0 0 0 0 0 0 0 0 0 0 0 0 0 0 0 0 0 0 0 0 0 0 0 0 0 0 0 0 0 0 0
0 0 0 0 0 0 0 0 0 0 0 0 0 0 0 0 0 0 0 0 0 0 0 0 0 0 0 0 0 0 0 0 0 0 0 0 0 0 0 0 0 0 0 0 0 0 0 0 0 0 0 0 0 0 0 0 0 0 0 0 0 0 0 0 0 0 0 0 0 0 0 0 0 0 0 0 0 0 0 0 0 0 0 0 0 0 0 0 0 0 0 0 0 0 0 0 0 0 0 0 0 0 0 0 0 96 100 100 89 90 98 96 90 89 88 88 89 88 89 89 89 90 89 89 90 90 89 89 89 90 89 90 89 88 89 90 90 89 88 87 87 87 87 87 87 87 87 88 88 87 85 86 89 87 87 90 93 96 96 95 93 90 89 91 94 93 93 89 92 92 89 91 89 88 89 88 87 92 92 93 90 89 89 88 87 87 88 88 92 92 93 92 90 91 92 92 92 95 90 91 97 101 100 99 87 86 86 88 89 94 94 94 92 87 88 91 90 91 96 98 97 96 92 90 90 92 91 90 90 90 93 93 91 94 86 86 89 91 89 92 93 90 87 88 89 90 90 89 91 90 90 89 91 90 89 102 102 108 106 102 99 97 94 96 96 96 96 96 93 100 104 104 105 103 102 101 102 101 104 105 108 108 107 105 104 103 106 103 104 104 106 107 108 107 108 107 105 107 106 108 106 104 103 110 109 106 112 110 109 109 111 109 107 105 107 109 108 109 109 108 105 108 109 112 111 107 105 106 108 105 108 109 109 107 106 100 102 104 110 107 106 105 106 108 107 110 110 109 109 107 108 107 110 110 112 114 117 115 0 0 0 0 0 0 0 0 0 0 0 0 0 0 0 0 0 0 0 0 0 0 0 0 0 0 0 0 0 0 0 0 0 0 0 0 0 0 0 0 0 0 0 0 0 0 0 0 0 0 0 0 0 0 0 0 0 0 0 0 0 0 0 0 0 0 0 0 0 0
0 0 0 0 0 0 0 0 0 0 0 0 0 0 0 0 0 0 0 0 0 0 0 0 0 0 0 0 0 0 0 0 0 0 0 0 0 0 0 0 0 0 0 0 0 0 0 0 0 0 0 0 0 0 0 0 0 0 0 0 0 0 0 0 0 0 0 0 0 0 0 0 0 0 0 0 0 0 0 0 0 0 0 0 0 0 0 0 0 0 0 0 0 0 0 0 0 0 0 0 0 0 0 95 97 97 90 88 88 89 88 86 92 91 89 88 90 92 91 89 91 91 90 90 89 90 90 89 88 90 90 90 90 89 89 89 90 89 89 88 88 88 88 88 88 88 88 88 88 85 87 89 87 87 88 93 95 94 93 90 89 90 88 89 90 90 91 88 90 90 88 87 89 87 87 88 86 89 95 93 93 89 89 89 88 87 86 89 92 93 95 94 88 89 89 88 88 88 87 88 96 102 103 88 88 87 88 88 89 89 90 94 89 88 87 87 91 95 94 93 97 95 89 92 92 92 91 93 96 90 90 87 89 88 86 86 88 88 90 92 90 87 88 89 89 89 89 89 89 89 89 90 91 89 91 103 103 106 106 105 101 98 97 97 96 100 102 102 98 105 102 104 103 103 103 101 103 101 104 105 105 107 109 107 104 100 102 101 106 104 99 104 104 107 106 104 107 106 107 104 108 107 109 113 112 110 107 112 112 112 110 111 110 107 108 107 106 105 106 104 104 107 112 112 107 106 105 107 107 105 104 108 111 108 107 107 106 99 108 108 106 106 105 105 104 109 109 107 108 106 107 108 109 113 113 115 111 112 0 0 0 0 0 0 0 0 0 0 0 0 0 0 0 0 0 0 0 0 0 0 0 0 0 0 0 0 0 0 0 0 0 0 0 0 0 0 0 0 0 0 0 0 0 0 0 0 0 0 0 0 0 0 0 0 0 0 0 0 0 0 0 0 0 0 0 0 0 0
0 0 0 0 0 0 0 0 0 0 0 0 0 0 0 0 0 0 0 0 0 0 0 0 0 0 0 0 0 0 0 0 0 0 0 0 0 0 0 0 0 0 0 0 0 0 0 0 0 0 0 0 0 0 0 0 0 0 0 0 0 0 0 0 0 0 0 0 0 0 0 0 0 0 0 0 0 0 0 0 0 0 0 0 0 0 0 0 0 0 0 0 0 0 0 0 0 0 0 0 0 0 0 93 91 88 87 88 87 88 91 89 85 87 89 89 96 96 96 91 96 95 92 92 89 90 96 95 90 96 95 89 89 89 90 90 90 90 89 89 89 89 89 89 90 90 90 90 88 88 89 88 87 89 92 94 93 92 89 86 86 87 88 88 89 90 90 89 90 91 88 87 87 89 87 87 86 87 94 95 95 92 89 89 89 88 87 87 92 91 91 90 88 88 88 89 86 87 87 90 97 100 101 87 88 89 88 91 92 92 88 92 91 89 88 89 94 93 91 94 93 92 89 94 93 91 90 93 95 90 89 86 87 86 86 86 86 92 93 90 88 88 89 90 89 89 89 89 88 89 90 91 89 89 92 100 103 104 104 103 102 99 100 101 100 100 103 103 103 103 103 103 102 104 105 103 102 103 103 103 104 104 108 105 105 104 105 111 106 102 101 106 106 105 106 107 103 108 108 110 109 109 107 114 111 107 106 112 115 116 111 111 111 108 110 108 109 108 111 107 107 110 111 106 104 105 106 108 108 107 104 106 108 110 107 112 110 100 103 112 109 109 106 106 104 106 108 106 106 107 107 109 110 110 111 111 112 0 0 0 0 0 0 0 0 0 0 0 0 0 0 0 0 0 0 0 0 0 0 0 0 0 0 0 0 0 0 0 0 0 0 0 0 0 0 0 0 0 0 0 0 0 0 0 0 0 0 0 0 0 0 0 0 0 0 0 0 0 0 0 0 0 0 0 0 0 0 0
0 0 0 0 0 0 0 0 0 0 0 0 0 0 0 0 0 0 0 0 0 0 0 0 0 0 0 0 0 0 0 0 0 0 0 0 0 0 0 0 0 0 0 0 0 0 0 0 0 0 0 0 0 0 0 0 0 0 0 0 0 0 0 0 0 0 0 0 0 0 0 0 0 0 0 0 0 0 0 0 0 0 0 0 0 0 0 0 0 0 0 0 0 0 0 0 0 0 0 0 0 0 0 92 88 87 87 88 88 90 93 93 87 87 88 88 94 96 95 91 93 95 91 91 89 90 95 94 89 94 95 87 88 90 90 91 89 89 88 87 87 87 87 87 87 87 87 87 88 89 87 87 90 92 94 94 91 89 88 85 86 87 88 88 88 89 90 89 92 94 90 87 87 89 89 87 87 88 92 93 93 93 89 89 89 89 88 87 91 91 92 94 91 88 88 87 87 86 86 88 96 102 97 87 88 89 89 88 90 91 88 91 89 89 89 88 92 89 89 92 92 90 89 93 94 91 91 92 92 92 88 88 87 86 86 87 87 93 94 92 88 89 89 89 88 89 90 88 89 90 90 90 89 91 93 100 102 103 103 103 103 102 101 103 104 102 102 101 101 103 103 105 103 105 103 103 103 102 102 104 106 103 105 104 103 106 103 108 112 106 103 109 108 106 105 106 107 109 109 110 107 104 109 110 108 107 108 110 110 114 111 109 109 108 106 105 106 106 108 113 108 111 108 106 106 105 104 111 112 107 107 109 108 104 104 106 108 105 106 104 110 110 105 104 106 104 107 107 108 109 109 110 111 109 112 111 110 0 0 0 0 0 0 0 0 0 0 0 0 0 0 0 0 0 0 0 0 0 0 0 0 0 0 0 0 0 0 0 0 0 0 0 0 0 0 0 0 0 0 0 0 0 0 0 0 0 0 0 0 0 0 0 0 0 0 0 0 0 0 0 0 0 0 0 0 0 0 0
0 0 0 0 0 0 0 0 0 0 0 0 0 0 0 0 0 0 0 0 0 0 0 0 0 0 0 0 0 0 0 0 0 0 0 0 0 0 0 0 0 0 0 0 0 0 0 0 0 0 0 0 0 0 0 0 0 0 0 0 0 0 0 0 0 0 0 0 0 0 0 0 0 0 0 0 0 0 0 0 0 0 0 0 0 0 0 0 0 0 0 0 0 0 0 0 0 0 0 0 0 0 95 99 88 87 88 89 93 93 89 88 89 89 87 89 88 88 88 88 91 90 90 88 88 90 89 89 89 89 88 88 89 90 89 89 89 90 89 89 89 89 89 89 89 89 89 89 89 87 88 89 92 93 96 92 90 88 86 86 86 86 87 87 89 91 93 88 94 94 90 88 90 91 89 87 88 88 88 92 95 94 93 89 89 89 89 88 91 93 94 96 92 88 88 88 87 87 86 86 93 100 91 87 88 91 88 88 88 88 88 89 88 92 92 90 88 89 90 89 89 92 89 90 91 90 90 91 90 91 86 86 89 86 90 92 91 92 89 88 88 89 90 90 90 89 90 89 89 90 90 90 89 92 95 96 99 103 107 109 106 103 103 103 102 101 103 103 103 103 104 101 102 104 104 103 103 103 103 104 104 103 105 106 105 107 104 104 105 106 108 109 108 108 106 106 104 107 108 108 105 106 108 107 111 110 111 109 109 108 109 108 109 106 108 103 105 105 111 109 106 109 108 108 105 104 106 110 112 111 110 111 107 110 107 106 106 108 106 107 106 108 107 109 106 104 107 107 108 108 109 110 110 112 112 112 0 0 0 0 0 0 0 0 0 0 0 0 0 0 0 0 0 0 0 0 0 0 0 0 0 0 0 0 0 0 0 0 0 0 0 0 0 0 0 0 0 0 0 0 0 0 0 0 0 0 0 0 0 0 0 0 0 0 0 0 0 0 0 0 0 0 0 0 0 0 0 0
0 0 0 0 0 0 0 0 0 0 0 0 0 0 0 0 0 0 0 0 0 0 0 0 0 0 0 0 0 0 0 0 0 0 0 0 0 0 0 0 0 0 0 0 0 0 0 0 0 0 0 0 0 0 0 0 0 0 0 0 0 0 0 0 0 0 0 0 0 0 0 0 0 0 0 0 0 0 0 0 0 0 0 0 0 0 0 0 0 0 0 0 0 0 0 0 0 0 0 0 92 96 100 102 88 88 87 89 90 88 88 91 92 88 89 89 88 89 88 91 92 92 92 91 92 91 95 95 91 93 93 87 89 88 87 86 86 87 86 86 86 86 86 87 87 87 88 88 87 88 89 90 93 93 96 92 91 91 91 88 87 86 87 86 92 94 95 87 88 90 88 88 88 90 87 88 87 86 88 93 99 97 92 93 89 89 89 89 88 90 94 95 92 89 87 87 87 87 87 87 90 87 87 91 92 92 91 93 92 92 92 93 91 93 93 91 88 89 91 91 89 87 87 86 92 91 89 90 92 93 87 87 88 91 90 94 93 92 91 89 89 89 89 94 94 92 92 91 90 92 89 89 92 94 95 95 99 101 105 109 108 105 104 103 103 103 102 101 105 107 103 102 101 104 103 101 100 103 101 102 103 102 103 105 106 107 105 103 103 104 107 106 105 105 106 105 105 104 104 104 106 105 106 107 109 112 113 111 108 112 111 109 108 109 109 106 107 109 108 109 109 107 108 102 103 102 104 106 110 111 111 110 104 104 106 107 104 106 106 105 107 107 107 109 108 108 107 106 105 108 108 110 112 112 111 112 108 0 0 0 0 0 0 0 0 0 0 0 0 0 0 0 0 0 0 0 0 0 0 0 0 0 0 0 0 0 0 0 0 0 0 0 0 0 0 0 0 0 0 0 0 0 0 0 0 0 0 0 0 0 0 0 0 0 0 0 0 0 0 0 0 0 0 0 0 0 0 0
0 0 0 0 0 0 0 0 0 0 0 0 0 0 0 0 0 0 0 0 0 0 0 0 0 0 0 0 0 0 0 0 0 0 0 0 0 0 0 0 0 0 0 0 0 0 0 0 0 0 0 0 0 0 0 0 0 0 0 0 0 0 0 0 0 0 0 0 0 0 0 0 0 0 0 0 0 0 0 0 0 0 0 0 0 0 0 0 0 0 0 0 0 0 0 0 0 0 0 0 89 91 97 91 89 89 87 88 89 90 92 92 92 87 87 87 89 88 89 90 93 90 92 92 92 90 90 91 89 93 93 87 88 85 86 86 87 89 89 89 89 89 89 89 89 89 89 87 89 90 92 94 93 93 92 91 90 90 92 88 87 87 88 88 87 89 88 87 88 88 87 92 87 88 88 87 87 87 89 92 95 97 92 93 91 89 89 89 89 88 98 94 91 90 87 88 87 87 89 89 87 87 87 94 93 92 91 89 90 93 91 90 88 87 87 88 88 88 90 89 92 91 88 87 87 88 90 90 91 88 88 90 91 93 90 90 91 89 88 88 89 89 93 94 93 92 92 91 90 91 89 89 92 94 94 95 96 104 104 108 108 108 108 106 104 106 106 105 108 109 108 106 103 103 103 103 99 99 101 101 103 104 103 106 108 105 104 101 102 101 102 102 103 105 108 108 107 103 103 105 106 104 104 107 109 110 110 110 109 110 111 109 112 109 110 109 109 109 108 105 106 104 105 106 103 102 105 107 109 111 110 110 107 107 107 107 105 105 105 106 108 107 107 106 105 109 110 107 108 108 107 107 112 110 111 108 106 0 0 0 0 0 0 0 0 0 0 0 0 0 0 0 0 0 0 0 0 0 0 0 0 0 0 0 0 0 0 0 0 0 0 0 0 0 0 0 0 0 0 0 0 0 0 0 0 0 0 0 0 0 0 0 0 0 0 0 0 0 0 0 0 0 0 0 0 0 0 0
0 0 0 0 0 0 0 0 0 0 0 0 0 0 0 0 0 0 0 0 0 0 0 0 0 0 0 0 0 0 0 0 0 0 0 0 0 0 0 0 0 0 0 0 0 0 0 0 0 0 0 0 0 0 0 0 0 0 0 0 0 0 0 0 0 0 0 0 0 0 0 0 0 0 0 0 0 0 0 0 0 0 0 0 0 0 0 0 0 0 0 0 0 0 0 0 0 0 0 90 90 88 88 89 90 88 86 88 88 90 90 93 94 90 88 84 82 88 86 86 86 86 86 86 86 87 87 88 86 86 85 86 86 85 87 90 93 90 92 93 96 96 88 90 90 89 89 88 89 92 95 96 96 95 93 93 89 89 88 87 87 87 86 85 84 84 85 88 89 87 91 93 90 92 91 89 87 86 85 89 92 93 91 93 93 90 89 89 89 88 90 92 91 88 87 86 86 87 88 85 86 88 91 93 90 89 90 90 88 87 87 89 91 91 92 92 91 89 86 89 91 89 88 87 86 86 87 87 86 86 91 91 90 90 89 89 89 89 88 88 89 88 88 90 90 90 89 90 90 91 89 92 95 94 97 97 100 106 106 108 108 109 108 105 104 106 105 106 108 108 109 109 105 102 103 102 100 101 100 102 102 103 105 106 108 108 104 103 101 104 105 103 106 110 110 111 111 112 111 111 110 112 112 109 111 111 111 112 111 110 109 110 111 112 111 112 109 110 108 107 106 104 106 106 108 105 107 108 110 113 111 111 109 109 108 107 107 109 106 109 112 113 107 105 104 110 109 108 106 104 106 106 109 108 108 105 253 0 0 0 0 0 0 0 0 0 0 0 0 0 0 0 0 0 0 0 0 0 0 0 0 0 0 0 0 0 0 0 0 0 0 0 0 0 0 0 0 0 0 0 0 0 0 0 0 0 0 0 0 0 0 0 0 0 0 0 0 0 0 0 0 0 0 0 0 0 0 0
0 0 0 0 0 0 0 0 0 0 0 0 0 0 0 0 0 0 0 0 0 0 0 0 0 0 0 0 0 0 0 0 0 0 0 0 0 0 0 0 0 0 0 0 0 0 0 0 0 0 0 0 0 0 0 0 0 0 0 0 0 0 0 0 0 0 0 0 0 0 0 0 0 0 0 0 0 0 0 0 0 0 0 0 0 0 0 0 0 0 0 0 0 0 0 0 0 0 94 92 92 88 88 92 93 88 90 89 89 90 88 91 93 87 87 87 86 82 88 86 87 86 86 86 86 87 86 86 87 86 87 92 91 90 90 96 97 93 97 95 96 96 89 89 88 89 89 90 91 93 95 93 93 92 90 91 90 88 89 88 89 90 89 92 95 87 89 90 89 86 87 93 90 90 90 91 88 87 85 86 90 93 90 91 93 93 95 96 91 89 90 91 90 89 88 87 86 89 90 86 87 90 92 91 88 88 87 89 92 90 87 93 92 93 92 93 92 91 88 85 89 88 87 86 86 86 86 84 86 90 93 93 90 89 90 92 92 89 88 89 90 88 88 90 91 89 88 91 91 89 93 98 96 96 100 99 105 107 106 107 106 105 105 105 105 105 106 107 108 109 111 110 109 107 105 104 103 101 101 102 103 105 105 107 108 107 106 104 103 102 101 103 104 105 108 109 110 109 111 111 112 112 112 110 110 109 109 109 109 110 110 110 109 110 110 111 108 107 107 105 104 106 107 108 106 107 108 110 110 112 112 110 106 104 102 103 104 107 106 105 110 111 109 105 102 109 112 109 107 106 107 106 107 109 108 105 0 0 0 0 0 0 0 0 0 0 0 0 0 0 0 0 0 0 0 0 0 0 0 0 0 0 0 0 0 0 0 0 0 0 0 0 0 0 0 0 0 0 0 0 0 0 0 0 0 0 0 0 0 0 0 0 0 0 0 0 0 0 0 0 0 0 0 0 0 0 0 0
0 0 0 0 0 0 0 0 0 0 0 0 0 0 0 0 0 0 0 0 0 0 0 0 0 0 0 0 0 0 0 0 0 0 0 0 0 0 0 0 0 0 0 0 0 0 0 0 0 0 0 0 0 0 0 0 0 0 0 0 0 0 0 0 0 0 0 0 0 0 0 0 0 0 0 0 0 0 0 0 0 0 0 0 0 0 0 0 0 0 0 0 0 0 0 0 93 95 98 87 87 88 90 88 91 90 91 89 87 87 85 86 86 86 87 87 87 87 86 87 87 86 87 87 87 88 88 88 88 88 91 96 96 92 93 95 96 92 97 96 92 89 89 88 89 89 89 88 89 88 89 89 90 90 90 90 91 91 91 91 93 92 91 92 95 90 89 89 92 87 86 86 88 88 88 87 87 87 86 86 86 90 91 93 92 93 95 96 94 91 92 93 92 90 89 89 88 90 86 87 87 89 90 89 89 90 90 92 93 91 86 91 89 93 92 93 93 93 92 87 86 85 86 84 85 85 85 86 87 88 88 88 90 88 89 90 89 89 89 90 91 87 87 88 92 90 89 92 90 88 98 100 96 97 100 100 103 105 107 105 103 104 105 104 104 106 108 108 110 109 110 109 109 109 109 106 105 106 104 104 104 105 106 106 108 110 104 105 104 105 102 101 103 103 107 108 108 107 109 110 109 108 110 108 108 110 111 110 110 112 110 111 109 108 110 107 106 106 104 106 109 107 107 108 108 107 109 110 112 111 114 111 104 102 105 101 109 107 104 103 107 108 107 108 105 104 110 110 106 107 105 104 106 106 109 106 0 0 0 0 0 0 0 0 0 0 0 0 0 0 0 0 0 0 0 0 0 0 0 0 0 0 0 0 0 0 0 0 0 0 0 0 0 0 0 0 0 0 0 0 0 0 0 0 0 0 0 0 0 0 0 0 0 0 0 0 0 0 0 0 0 0 0 0 0 0 0 0
0 0 0 0 0 0 0 0 0 0 0 0 0 0 0 0 0 0 0 0 0 0 0 0 0 0 0 0 0 0 0 0 0 0 0 0 0 0 0 0 0 0 0 0 0 0 0 0 0 0 0 0 0 0 0 0 0 0 0 0 0 0 0 0 0 0 0 0 0 0 0 0 0 0 0 0 0 0 0 0 0 0 0 0 0 0 0 0 0 0 0 0 0 0 0 0 0 92 88 91 91 86 88 90 92 95 88 89 86 87 86 86 87 86 86 90 87 88 85 85 85 85 85 85 85 85 85 85 85 87 89 94 93 89 93 93 90 90 90 87 87 87 89 89 89 88 87 86 88 87 89 88 89 89 89 89 90 91 91 91 91 91 92 92 92 90 91 92 91 86 85 87 89 90 87 86 88 87 87 85 85 86 86 87 88 92 94 93 92 93 94 94 96 89 88 89 89 87 90 88 87 87 87 86 88 92 92 89 91 92 88 90 90 93 93 92 93 92 90 88 87 86 86 87 87 87 87 87 87 88 88 88 88 88 91 93 90 89 90 91 90 88 87 88 90 90 91 91 90 89 96 98 98 97 98 100 101 103 105 102 101 102 106 104 105 106 106 108 109 109 108 109 110 109 109 107 107 105 104 105 104 107 106 106 109 112 106 108 107 109 106 102 101 101 105 108 108 106 108 108 108 107 110 107 107 107 107 108 112 111 110 110 110 108 109 109 107 106 106 110 111 108 109 111 110 109 105 110 116 113 108 108 106 104 105 102 107 112 107 105 109 107 109 108 108 104 106 108 109 111 111 109 105 108 106 105 0 0 0 0 0 0 0 0 0 0 0 0 0 0 0 0 0 0 0 0 0 0 0 0 0 0 0 0 0 0 0 0 0 0 0 0 0 0 0 0 0 0 0 0 0 0 0 0 0 0 0 0 0 0 0 0 0 0 0 0 0 0 0 0 0 0 0 0 0 0 0 0
0 0 0 0 0 0 0 0 0 0 0 0 0 0 0 0 0 0 0 0 0 0 0 0 0 0 0 0 0 0 0 0 0 0 0 0 0 0 0 0 0 0 0 0 0 0 0 0 0 0 0 0 0 0 0 0 0 0 0 0 0 0 0 0 0 0 0 0 0 0 0 0 0 0 0 0 0 0 0 0 0 0 0 0 0 0 0 0 0 0 0 0 0 0 0 0 96 92 92 87 88 87 91 90 88 89 88 87 86 85 86 85 87 87 86 95 90 86 86 85 86 86 86 87 87 87 85 86 86 88 87 87 87 86 87 87 85 85 86 87 87 89 88 88 87 87 86 87 88 88 88 88 88 88 89 89 89 90 91 91 91 91 90 90 92 91 90 89 88 86 86 87 91 90 89 90 87 87 87 86 84 84 84 85 84 86 89 89 92 97 94 96 97 96 89 89 86 87 87 88 88 92 92 90 89 90 90 92 93 93 92 90 89 92 92 87 86 87 88 88 89 92 88 87 87 87 88 88 88 89 88 88 88 88 90 91 89 88 90 91 89 89 88 89 89 89 89 91 89 90 96 98 97 100 100 101 101 101 103 102 103 105 103 104 104 106 106 105 106 107 106 104 105 107 105 106 106 105 105 104 104 104 103 105 107 108 106 110 111 110 106 106 105 105 102 105 106 108 109 110 108 107 107 111 112 111 110 109 112 111 107 110 109 109 108 105 105 104 107 110 109 111 113 112 112 108 110 110 115 114 108 109 107 105 104 103 106 108 110 107 107 104 108 106 104 103 104 106 104 110 113 112 108 108 107 105 0 0 0 0 0 0 0 0 0 0 0 0 0 0 0 0 0 0 0 0 0 0 0 0 0 0 0 0 0 0 0 0 0 0 0 0 0 0 0 0 0 0 0 0 0 0 0 0 0 0 0 0 0 0 0 0 0 0 0 0 0 0 0 0 0 0 0 0 0 0 0 0
0 0 0 0 0 0 0 0 0 0 0 0 0 0 0 0 0 0 0 0 0 0 0 0 0 0 0 0 0 0 0 0 0 0 0 0 0 0 0 0 0 0 0 0 0 0 0 0 0 0 0 0 0 0 0 0 0 0 0 0 0 0 0 0 0 0 0 0 0 0 0 0 0 0 0 0 0 0 0 0 0 0 0 0 0 0 0 0 0 0 0 0 0 0 0 99 97 93 93 87 87 90 89 88 91 88 87 87 86 86 86 86 86 87 86 87 86 87 87 85 85 85 85 86 86 86 86 86 86 86 84 83 83 85 85 86 86 87 88 88 89 90 89 87 86 86 87 87 87 87 87 87 91 88 88 89 89 90 90 89 89 89 88 89 89 89 88 89 87 89 89 87 88 88 88 88 87 87 87 88 86 84 84 84 83 83 83 83 85 84 93 98 99 99 89 90 87 87 86 89 89 92 92 91 93 93 92 92 92 91 88 89 87 88 87 87 87 93 94 94 91 93 90 88 88 88 87 87 89 88 89 89 90 89 89 89 89 89 90 90 89 88 89 91 91 95 96 92 89 90 99 100 101 102 103 101 102 104 105 103 104 104 105 102 105 105 104 102 106 107 108 108 103 104 105 110 108 107 106 104 103 104 103 106 108 105 111 110 109 112 111 109 108 108 105 107 106 107 110 110 108 106 110 107 108 106 107 107 110 105 107 107 109 109 106 105 105 106 109 112 110 114 114 115 110 109 112 112 114 111 106 105 103 103 108 102 106 106 103 108 109 109 110 113 107 104 106 105 103 107 108 109 110 107 107 0 0 0 0 0 0 0 0 0 0 0 0 0 0 0 0 0 0 0 0 0 0 0 0 0 0 0 0 0 0 0 0 0 0 0 0 0 0 0 0 0 0 0 0 0 0 0 0 0 0 0 0 0 0 0 0 0 0 0 0 0 0 0 0 0 0 0 0 0 0 0 0 0
0 0 0 0 0 0 0 0 0 0 0 0 0 0 0 0 0 0 0 0 0 0 0 0 0 0 0 0 0 0 0 0 0 0 0 0 0 0 0 0 0 0 0 0 0 0 0 0 0 0 0 0 0 0 0 0 0 0 0 0 0 0 0 0 0 0 0 0 0 0 0 0 0 0 0 0 0 0 0 0 0 0 0 0 0 0 0 0 0 0 0 0 0 0 101 101 95 88 86 86 86 85 86 90 90 87 87 87 87 87 86 86 87 87 86 87 87 87 88 86 87 86 86 86 86 87 86 87 87 86 87 87 87 88 89 93 92 92 90 89 89 89 88 87 88 87 86 86 88 88 90 88 88 89 90 89 89 89 88 89 87 88 88 87 88 91 87 87 87 91 90 87 89 90 89 87 87 87 89 88 87 86 86 85 82 83 82 83 82 82 82 84 100 101 103 86 87 87 87 88 87 87 87 87 91 89 88 86 87 87 88 88 90 92 93 91 92 94 93 91 93 90 89 88 88 88 88 90 88 88 88 89 91 92 92 89 89 90 90 89 89 87 97 97 96 96 100 93 89 90 96 96 99 100 100 102 102 103 103 103 103 104 104 102 105 105 102 101 101 105 105 104 106 105 106 112 110 110 107 106 108 105 107 109 107 105 109 109 109 110 111 108 108 106 108 110 108 108 108 110 106 107 107 107 109 105 105 105 106 107 106 107 107 107 107 107 106 105 110 112 112 113 112 110 108 112 112 114 112 111 104 104 104 104 106 106 105 105 107 108 110 110 110 111 108 107 105 105 109 107 110 111 109 109 108 0 0 0 0 0 0 0 0 0 0 0 0 0 0 0 0 0 0 0 0 0 0 0 0 0 0 0 0 0 0 0 0 0 0 0 0 0 0 0 0 0 0 0 0 0 0 0 0 0 0 0 0 0 0 0 0 0 0 0 0 0 0 0 0 0 0 0 0 0 0 0 0 0
0 0 0 0 0 0 0 0 0 0 0 0 0 0 0 0 0 0 0 0 0 0 0 0 0 0 0 0 0 0 0 0 0 0 0 0 0 0 0 0 0 0 0 0 0 0 0 0 0 0 0 0 0 0 0 0 0 0 0 0 0 0 0 0 0 0 0 0 0 0 0 0 0 0 0 0 0 0 0 0 0 0 0 0 0 0 0 0 0 0 0 0 0 229 102 99 95 84 85 86 85 84 84 87 86 85 87 89 86 87 86 86 86 86 87 87 87 87 85 84 84 85 85 85 85 86 86 87 89 90 91 93 95 94 95 95 94 93 90 93 86 86 87 86 86 85 84 86 86 86 90 88 87 87 86 85 85 86 87 86 86 87 87 90 91 91 89 85 87 89 88 86 90 89 90 87 86 86 89 89 87 87 86 84 82 81 80 81 81 80 80 81 81 101 102 85 87 86 86 88 87 88 86 86 86 87 87 86 87 89 90 88 91 92 93 91 91 93 92 91 93 91 90 89 89 88 88 92 92 89 89 90 90 92 91 89 88 90 90 89 89 97 99 98 99 100 103 94 89 92 92 94 96 103 102 104 103 105 106 105 106 106 106 106 105 103 101 99 103 104 106 107 108 107 108 111 114 110 109 107 107 106 105 106 105 109 108 108 110 113 113 113 113 108 109 107 107 108 110 109 105 104 98 104 110 108 110 108 108 108 107 108 109 107 107 109 105 109 112 113 112 112 112 111 110 110 109 114 113 115 110 106 106 105 106 109 109 113 109 112 110 110 112 113 110 109 108 107 109 108 108 110 107 105 108 0 0 0 0 0 0 0 0 0 0 0 0 0 0 0 0 0 0 0 0 0 0 0 0 0 0 0 0 0 0 0 0 0 0 0 0 0 0 0 0 0 0 0 0 0 0 0 0 0 0 0 0 0 0 0 0 0 0 0 0 0 0 0 0 0 0 0 0 0 0 0 0 0
0 0 0 0 0 0 0 0 0 0 0 0 0 0 0 0 0 0 0 0 0 0 0 0 0 0 0 0 0 0 0 0 0 0 0 0 0 0 0 0 0 0 0 0 0 0 0 0 0 0 0 0 0 0 0 0 0 0 0 0 0 0 0 0 0 0 0 0 0 0 0 0 0 0 0 0 0 0 0 0 0 0 0 0 0 0 0 0 0 0 0 0 0 0 102 95 87 86 86 87 86 89 89 86 89 89 88 88 87 86 89 91 85 86 87 85 86 86 85 86 86 86 87 87 87 87 86 87 90 93 94 95 96 95 93 92 91 90 89 91 88 89 89 85 84 85 85 85 85 86 86 89 86 85 85 85 85 86 86 87 87 87 91 91 90 89 87 84 89 89 92 87 90 88 92 89 87 88 89 90 90 87 88 87 87 88 94 93 88 86 86 86 86 104 104 106 86 86 87 88 90 90 87 88 89 91 91 87 88 89 89 88 89 91 92 92 89 93 92 89 89 88 89 89 93 89 88 88 92 89 92 92 89 89 89 88 90 90 90 89 89 88 96 96 101 100 96 92 89 92 91 94 94 99 100 101 101 103 102 103 106 107 107 109 110 108 104 104 105 105 106 104 104 104 107 109 110 112 109 109 109 109 107 108 105 107 112 109 108 109 110 111 113 109 108 109 111 111 110 111 108 105 103 109 112 110 110 107 105 105 106 105 107 108 108 107 109 111 113 113 114 116 117 114 114 107 108 114 111 109 106 105 105 107 106 106 106 108 107 107 106 109 110 113 116 111 107 109 112 111 117 119 109 105 101 0 0 0 0 0 0 0 0 0 0 0 0 0 0 0 0 0 0 0 0 0 0 0 0 0 0 0 0 0 0 0 0 0 0 0 0 0 0 0 0 0 0 0 0 0 0 0 0 0 0 0 0 0 0 0 0 0 0 0 0 0 0 0 0 0 0 0 0 0 0 0 0 0
0 0 0 0 0 0 0 0 0 0 0 0 0 0 0 0 0 0 0 0 0 0 0 0 0 0 0 0 0 0 0 0 0 0 0 0 0 0 0 0 0 0 0 0 0 0 0 0 0 0 0 0 0 0 0 0 0 0 0 0 0 0 0 0 0 0 0 0 0 0 0 0 0 0 0 0 0 0 0 0 0 0 0 0 0 0 0 0 0 0 0 0 7 103 101 96 90 89 88 86 90 89 86 90 88 86 91 89 89 86 85 86 85 87 87 86 86 87 88 88 86 86 86 85 85 85 85 85 89 90 91 91 92 90 91 87 88 89 89 94 94 89 86 82 82 81 83 86 86 86 86 86 87 86 85 85 87 86 87 87 86 89 91 90 89 86 83 86 90 89 92 91 86 86 90 89 86 86 90 90 92 86 88 87 87 95 98 98 97 89 88 88 87 87 106 106 87 86 88 88 88 89 88 89 90 92 91 88 91 91 92 91 92 92 93 92 88 88 87 87 87 88 89 88 91 90 88 89 92 88 90 92 89 89 89 89 90 90 89 89 88 90 94 98 100 99 95 92 89 90 90 95 94 98 99 99 101 101 102 102 104 106 105 105 108 108 106 107 107 106 106 106 105 108 109 108 106 108 108 110 108 109 109 112 109 109 110 112 111 111 110 108 111 113 110 107 109 108 111 113 113 105 105 113 111 111 108 108 107 110 108 106 107 107 108 108 112 112 113 110 112 114 116 115 109 110 110 112 108 105 105 105 106 107 107 108 108 108 109 106 103 104 107 110 117 119 114 109 108 107 114 114 111 107 106 0 0 0 0 0 0 0 0 0 0 0 0 0 0 0 0 0 0 0 0 0 0 0 0 0 0 0 0 0 0 0 0 0 0 0 0 0 0 0 0 0 0 0 0 0 0 0 0 0 0 0 0 0 0 0 0 0 0 0 0 0 0 0 0 0 0 0 0 0 0 0 0 0
0 0 0 0 0 0 0 0 0 0 0 0 0 0 0 0 0 0 0 0 0 0 0 0 0 0 0 0 0 0 0 0 0 0 0 0 0 0 0 0 0 0 0 0 0 0 0 0 0 0 0 0 0 0 0 0 0 0 0 0 0 0 0 0 0 0 0 0 0 0 0 0 0 0 0 0 0 0 0 0 0 0 0 0 0 0 0 0 89 94 98 101 101 101 96 91 92 93 88 88 88 87 86 91 92 86 88 89 87 86 86 86 86 86 86 86 85 85 87 87 86 86 84 82 82 84 84 84 84 89 86 89 90 86 87 87 88 88 88 89 92 86 85 85 85 91 86 86 88 89 86 87 86 86 86 86 86 86 86 87 86 90 90 90 90 85 85 89 89 87 87 85 86 88 91 91 90 87 86 87 87 86 88 88 88 86 95 95 96 91 88 90 92 87 106 106 107 86 88 88 87 88 92 93 90 91 93 89 90 90 92 91 89 89 91 90 89 92 94 92 95 93 94 89 88 88 90 90 93 93 88 88 88 88 88 90 91 89 89 88 88 91 93 96 98 98 94 94 88 89 90 91 95 98 97 97 99 101 103 104 102 104 105 105 107 106 104 104 104 104 107 106 107 110 108 105 105 105 106 107 108 108 110 112 111 108 110 111 109 108 109 109 113 114 104 107 112 109 108 111 111 108 105 106 106 109 111 112 109 110 107 108 106 109 110 110 110 111 111 114 108 107 110 110 105 111 111 108 107 105 106 106 107 106 102 105 106 106 106 107 104 107 110 110 116 114 111 108 111 111 108 108 0 0 0 0 0 0 0 0 0 0 0 0 0 0 0 0 0 0 0 0 0 0 0 0 0 0 0 0 0 0 0 0 0 0 0 0 0 0 0 0 0 0 0 0 0 0 0 0 0 0 0 0 0 0 0 0 0 0 0 0 0 0 0 0 0 0 0 0 0 0 0 0 0 0 0 0
0 0 0 0 0 0 0 0 0 0 0 0 0 0 0 0 0 0 0 0 0 0 0 0 0 0 0 0 0 0 0 0 0 0 0 0 0 0 0 0 0 0 0 0 0 0 0 0 0 0 0 0 0 0 0 0 0 0 0 0 0 0 0 0 0 0 0 0 0 0 0 0 0 0 0 0 0 0 0 0 0 0 0 0 0 0 0 0 0 98 98 98 100 100 97 93 92 94 90 90 89 88 89 90 91 89 88 86 85 86 86 87 87 86 85 86 87 88 86 85 86 87 89 86 90 91 86 86 85 85 84 92 90 86 89 88 87 88 87 88 85 86 86 87 88 93 91 85 92 88 86 86 85 85 85 86 86 87 86 87 86 88 89 92 86 87 86 89 87 87 86 86 85 88 90 92 90 87 87 88 90 89 92 92 91 89 87 88 90 89 91 92 92 87 86 106 106 88 87 88 88 89 92 92 92 92 92 90 87 88 92 92 88 90 92 92 91 90 94 94 94 94 88 88 88 88 92 93 90 90 89 89 88 89 89 91 90 89 89 89 88 91 92 95 95 94 93 95 89 88 91 89 93 99 99 100 105 104 103 104 107 106 107 105 101 104 105 104 107 105 105 105 104 105 105 103 101 101 103 107 107 106 109 108 108 108 106 108 107 108 110 111 110 110 107 110 112 109 110 111 109 105 105 105 105 106 111 113 111 109 111 109 108 107 108 108 109 112 112 115 109 112 110 108 106 106 107 113 111 109 106 105 104 104 107 105 105 105 106 105 105 107 105 111 115 112 106 110 109 0 0 0 0 0 0 0 0 0 0 0 0 0 0 0 0 0 0 0 0 0 0 0 0 0 0 0 0 0 0 0 0 0 0 0 0 0 0 0 0 0 0 0 0 0 0 0 0 0 0 0 0 0 0 0 0 0 0 0 0 0 0 0 0 0 0 0 0 0 0 0 0 0 0 0 0 0 0 0
0 0 0 0 0 0 0 0 0 0 0 0 0 0 0 0 0 0 0 0 0 0 0 0 0 0 0 0 0 0 0 0 0 0 0 0 0 0 0 0 0 0 0 0 0 0 0 0 0 0 0 0 0 0 0 0 0 0 0 0 0 0 0 0 0 0 0 0 0 0 0 0 0 0 0 0 0 0 0 0 0 0 0 0 0 0 0 0 32 101 99 97 99 99 92 91 90 89 90 91 90 90 90 90 88 89 85 85 86 86 86 86 87 87 87 86 89 93 90 85 86 89 93 87 89 88 87 86 87 86 86 87 90 85 88 88 88 88 88 88 88 88 88 88 88 92 92 87 89 89 86 86 85 85 86 86 86 86 86 86 86 87 89 92 91 88 86 87 87 86 86 85 86 88 88 88 88 88 86 87 87 87 92 92 92 88 91 90 89 89 90 88 90 88 87 100 106 107 87 87 88 87 87 88 89 89 93 92 90 90 92 93 87 89 91 90 91 88 90 89 90 90 89 88 87 88 88 90 90 88 88 88 89 90 91 90 89 89 89 89 88 90 91 90 95 96 94 94 94 89 90 90 92 99 99 100 104 103 105 107 106 108 107 106 104 104 106 105 104 99 102 103 104 101 101 102 101 101 101 105 106 107 108 106 108 103 103 107 108 106 107 109 110 109 107 105 107 107 105 108 104 105 107 105 104 105 105 113 112 107 109 109 107 109 108 107 110 110 113 111 110 110 108 108 109 107 106 112 113 108 107 106 107 112 105 108 108 106 107 104 106 104 107 108 112 109 108 250 0 0 0 0 0 0 0 0 0 0 0 0 0 0 0 0 0 0 0 0 0 0 0 0 0 0 0 0 0 0 0 0 0 0 0 0 0 0 0 0 0 0 0 0 0 0 0 0 0 0 0 0 0 0 0 0 0 0 0 0 0 0 0 0 0 0 0 0 0 0 0 0 0 0 0 0 0 0 0 0
0 0 0 0 0 0 0 0 0 0 0 0 0 0 0 0 0 0 0 0 0 0 0 0 0 0 0 0 0 0 0 0 0 0 0 0 0 0 0 0 0 0 0 0 0 0 0 0 0 0 0 0 0 0 0 0 0 0 0 0 0 0 0 0 0 0 0 0 0 0 0 0 0 0 0 0 0 0 0 0 0 0 0 0 0 0 98 99 101 100 98 93 94 94 93 91 90 89 89 92 91 92 92 93 86 85 85 86 87 86 85 86 86 87 91 89 91 91 90 87 86 88 92 87 88 87 88 87 86 85 85 85 86 87 88 88 88 88 88 88 88 90 87 87 88 89 91 88 85 92 87 85 86 86 86 86 87 86 87 86 87 88 88 90 90 87 86 87 85 86 86 85 86 89 90 91 91 89 89 90 89 89 87 86 89 88 88 87 87 89 88 88 89 86 86 87 106 106 88 88 89 88 87 86 89 90 93 92 88 90 89 89 87 88 92 92 92 88 90 91 90 89 89 88 90 91 88 88 88 88 88 89 91 91 89 90 90 89 89 88 88 89 89 89 89 89 88 89 92 88 91 92 94 97 100 99 101 104 108 109 110 112 109 106 105 106 106 105 101 100 100 101 98 98 100 100 100 101 102 102 105 107 103 104 107 103 105 106 107 104 105 107 109 108 105 104 107 111 106 105 107 107 107 104 104 106 106 112 112 107 106 107 112 109 108 107 108 111 109 109 107 109 106 108 109 105 106 106 109 112 110 105 106 107 107 111 106 105 106 104 104 104 105 106 107 108 0 0 0 0 0 0 0 0 0 0 0 0 0 0 0 0 0 0 0 0 0 0 0 0 0 0 0 0 0 0 0 0 0 0 0 0 0 0 0 0 0 0 0 0 0 0 0 0 0 0 0 0 0 0 0 0 0 0 0 0 0 0 0 0 0 0 0 0 0 0 0 0 0 0 0 0 0 0 0 0 0 0
0 0 0 0 0 0 0 0 0 0 0 0 0 0 0 0 0 0 0 0 0 0 0 0 0 0 0 0 0 0 0 0 0 0 0 0 0 0 0 0 0 0 0 0 0 0 0 0 0 0 0 0 0 0 0 0 0 0 0 0 0 0 0 0 0 0 0 0 0 0 0 0 0 0 0 0 0 0 0 0 0 0 0 0 93 95 98 98 99 99 96 90 91 93 93 87 88 88 91 94 94 94 92 84 83 83 87 87 86 87 85 85 85 85 91 88 88 88 88 88 86 87 88 85 86 87 88 85 86 85 85 86 88 89 89 88 88 88 88 89 88 89 89 86 87 86 86 86 83 85 84 83 84 84 84 84 85 84 85 85 85 85 82 83 84 82 85 85 85 86 86 85 87 88 90 90 89 87 89 89 89 90 88 86 88 88 86 87 88 89 88 86 86 85 86 88 106 106 108 87 86 86 86 87 87 88 92 92 88 89 89 87 87 87 91 90 89 89 89 88 88 87 88 90 91 92 89 88 89 90 90 91 92 90 89 89 89 88 89 88 89 89 88 88 89 87 85 86 88 88 89 89 93 94 101 99 103 107 105 103 111 112 110 105 105 107 107 106 102 100 99 98 99 100 100 99 100 98 100 102 101 104 104 104 104 105 106 106 105 104 105 107 110 109 109 110 112 112 111 110 109 107 107 108 108 108 109 113 114 109 110 109 112 111 110 108 107 111 111 111 111 112 111 111 111 108 109 110 111 111 108 107 107 106 107 109 111 110 109 111 111 105 106 107 105 0 0 0 0 0 0 0 0 0 0 0 0 0 0 0 0 0 0 0 0 0 0 0 0 0 0 0 0 0 0 0 0 0 0 0 0 0 0 0 0 0 0 0 0 0 0 0 0 0 0 0 0 0 0 0 0 0 0 0 0 0 0 0 0 0 0 0 0 0 0 0 0 0 0 0 0 0 0 0 0 0 0 0
0 0 0 0 0 0 0 0 0 0 0 0 0 0 0 0 0 0 0 0 0 0 0 0 0 0 0 0 0 0 0 0 0 0 0 0 0 0 0 0 0 0 0 0 0 0 0 0 0 0 0 0 0 0 0 0 0 0 0 0 0 0 0 0 0 0 0 0 0 0 0 0 0 0 0 0 0 0 0 0 0 0 0 0 95 97 97 95 95 90 89 90 90 90 91 85 87 86 88 93 89 89 88 80 82 90 91 89 90 92 90 87 86 86 89 91 90 89 89 89 86 87 88 87 90 91 90 86 85 85 86 87 88 89 89 89 88 89 88 88 90 87 87 87 88 91 91 92 85 84 84 85 84 85 85 84 84 84 85 85 84 84 82 81 82 84 85 86 88 90 91 89 86 87 90 88 87 87 86 87 88 89 89 89 89 89 89 88 87 88 88 86 89 87 87 88 89 108 106 87 87 86 86 87 86 87 92 92 87 90 89 88 91 88 91 92 92 91 88 88 90 91 90 90 90 87 87 87 88 91 92 93 91 90 88 88 89 88 88 88 88 89 88 90 92 93 92 86 86 88 88 92 92 95 101 104 107 108 108 110 112 110 109 107 106 107 107 105 103 102 101 100 98 99 98 97 99 99 101 101 99 103 105 103 103 105 107 107 104 105 106 106 109 110 109 114 113 113 110 110 110 107 107 109 111 108 108 109 112 113 110 111 110 109 108 106 106 106 106 107 108 108 108 109 110 110 110 109 111 111 108 107 106 108 108 107 108 109 107 109 108 107 107 0 0 0 0 0 0 0 0 0 0 0 0 0 0 0 0 0 0 0 0 0 0 0 0 0 0 0 0 0 0 0 0 0 0 0 0 0 0 0 0 0 0 0 0 0 0 0 0 0 0 0 0 0 0 0 0 0 0 0 0 0 0 0 0 0 0 0 0 0 0 0 0 0 0 0 0 0 0 0 0 0 0 0 0 0
0 0 0 0 0 0 0 0 0 0 0 0 0 0 0 0 0 0 0 0 0 0 0 0 0 0 0 0 0 0 0 0 0 0 0 0 0 0 0 0 0 0 0 0 0 0 0 0 0 0 0 0 0 0 0 0 0 0 0 0 0 0 0 0 0 0 0 0 0 0 0 0 0 0 0 0 0 0 0 0 0 73 95 98 98 100 99 97 93 90 88 89 90 88 88 87 86 85 88 89 89 89 81 83 89 95 92 90 89 92 92 90 87 85 91 93 92 88 88 85 86 85 86 88 87 89 87 86 85 86 86 86 87 87 88 88 87 88 88 88 88 89 88 88 88 91 91 85 85 84 87 85 84 85 85 85 85 84 83 82 82 82 83 84 85 89 91 90 89 89 91 88 85 86 87 87 87 88 87 88 91 91 89 89 89 90 92 91 87 87 87 92 93 91 88 88 87 107 106 107 87 87 86 86 86 86 88 89 90 90 91 92 93 89 91 91 90 89 88 92 93 94 91 88 88 86 86 86 87 91 91 90 90 94 93 90 89 89 88 88 89 88 88 90 92 95 95 89 88 89 89 94 94 93 96 98 99 104 107 110 109 109 109 106 107 103 101 105 104 101 99 99 100 98 96 98 101 104 102 100 100 103 102 104 105 105 106 107 106 107 104 105 106 107 108 109 112 112 109 107 108 107 107 107 108 110 110 109 112 111 109 108 108 106 107 106 104 103 103 103 106 105 104 106 107 108 107 110 110 110 110 107 111 107 107 108 107 107 107 106 105 0 0 0 0 0 0 0 0 0 0 0 0 0 0 0 0 0 0 0 0 0 0 0 0 0 0 0 0 0 0 0 0 0 0 0 0 0 0 0 0 0 0 0 0 0 0 0 0 0 0 0 0 0 0 0 0 0 0 0 0 0 0 0 0 0 0 0 0 0 0 0 0 0 0 0 0 0 0 0 0 0 0 0 0 0 0 0
0 0 0 0 0 0 0 0 0 0 0 0 0 0 0 0 0 0 0 0 0 0 0 0 0 0 0 0 0 0 0 0 0 0 0 0 0 0 0 0 0 0 0 0 0 0 0 0 0 0 0 0 0 0 0 0 0 0 0 0 0 0 0 0 0 0 0 0 0 0 0 0 0 0 0 0 0 87 88 91 92 91 94 97 98 98 98 97 90 87 89 90 91 88 86 88 89 88 87 87 88 81 84 88 93 97 92 98 90 89 91 89 91 86 87 89 87 85 87 87 87 85 87 90 91 87 87 90 87 85 86 87 87 87 89 87 87 87 88 88 88 89 87 87 88 86 85 85 86 87 90 89 88 86 84 85 85 85 83 84 84 83 87 90 89 91 92 89 88 87 91 86 85 87 86 86 87 90 91 91 91 91 87 86 88 89 87 86 86 86 87 92 92 88 87 86 87 87 106 106 87 89 90 86 87 89 90 91 91 89 92 92 91 88 88 90 90 90 88 91 93 93 88 87 87 85 87 89 88 88 87 87 88 93 94 93 91 89 90 89 88 88 88 87 89 92 93 89 89 88 89 95 93 93 95 94 96 99 102 110 109 107 104 101 101 101 102 103 105 102 101 98 98 98 98 99 100 101 103 102 105 105 107 107 106 104 108 104 107 107 106 104 107 109 106 108 107 109 105 105 106 105 107 109 108 107 108 107 108 109 106 107 106 106 108 106 104 103 103 103 103 104 105 103 104 105 104 105 108 107 109 109 113 111 108 109 107 0 0 0 0 0 0 0 0 0 0 0 0 0 0 0 0 0 0 0 0 0 0 0 0 0 0 0 0 0 0 0 0 0 0 0 0 0 0 0 0 0 0 0 0 0 0 0 0 0 0 0 0 0 0 0 0 0 0 0 0 0 0 0 0 0 0 0 0 0 0 0 0 0 0 0 0 0 0 0 0 0 0 0 0 0 0 0 0 0 0 0
0 0 0 0 0 0 0 0 0 0 0 0 0 0 0 0 0 0 0 0 0 0 0 0 0 0 0 0 0 0 0 0 0 0 0 0 0 0 0 0 0 0 0 0 0 0 0 0 0 0 0 0 0 0 0 0 0 0 0 0 0 0 0 0 0 0 0 0 0 0 0 0 0 0 228 87 89 89 88 93 95 91 94 96 96 96 98 97 89 88 87 86 85 87 85 85 85 88 88 89 82 84 87 91 96 93 92 94 92 91 89 90 93 86 85 85 85 85 87 87 87 85 89 89 89 87 89 91 88 85 86 86 86 88 88 88 86 87 87 87 89 88 87 88 88 88 86 88 88 89 89 89 87 85 86 88 86 86 86 90 92 89 87 91 90 88 86 86 86 86 85 85 86 90 92 93 88 89 88 87 87 86 86 92 92 88 86 86 87 87 89 91 89 88 86 87 87 87 106 106 107 87 89 86 87 87 89 89 87 87 87 87 88 89 88 91 92 89 87 87 88 88 87 86 86 87 87 88 87 87 86 86 89 91 93 95 89 93 90 89 88 88 88 87 87 88 88 89 88 88 91 94 95 95 96 93 96 98 99 109 107 103 100 100 99 101 102 103 102 102 101 97 100 100 102 101 102 103 107 105 106 106 107 108 104 103 104 104 108 109 106 104 108 107 105 106 106 107 105 103 105 105 106 106 105 104 106 105 105 106 106 107 105 107 108 106 105 103 103 102 103 103 104 104 103 103 103 105 106 106 106 109 109 107 106 105 0 0 0 0 0 0 0 0 0 0 0 0 0 0 0 0 0 0 0 0 0 0 0 0 0 0 0 0 0 0 0 0 0 0 0 0 0 0 0 0 0 0 0 0 0 0 0 0 0 0 0 0 0 0 0 0 0 0 0 0 0 0 0 0 0 0 0 0 0 0 0 0 0 0 0 0 0 0 0 0 0 0 0 0 0 0 0 0 0 0 0 0
0 0 0 0 0 0 0 0 0 0 0 0 0 0 0 0 0 0 0 0 0 0 0 0 0 0 0 0 0 0 0 0 0 0 0 0 0 0 0 0 0 0 0 0 0 0 0 0 0 0 0 0 0 0 0 0 0 0 0 0 0 0 0 0 0 0 0 0 0 62 87 89 89 89 89 90 88 89 89 90 94 94 96 97 98 95 94 90 92 92 92 91 87 85 85 85 85 83 86 83 84 86 91 93 93 92 90 91 92 91 93 93 90 88 85 85 86 86 89 89 88 87 86 87 87 86 86 85 85 85 86 85 86 86 86 87 88 87 86 86 89 87 87 88 88 88 86 89 91 89 90 87 86 84 90 91 87 87 88 88 88 86 86 86 86 87 87 88 87 85 86 87 86 89 88 89 87 87 87 87 87 87 87 88 88 88 87 91 90 88 87 87 87 87 96 94 87 87 87 106 106 86 88 89 87 86 86 87 87 87 90 92 93 92 87 93 93 88 87 87 87 87 85 88 89 91 87 87 87 88 87 88 94 93 89 91 95 95 92 89 88 87 88 87 88 89 88 88 88 89 94 94 97 96 97 96 97 97 105 107 105 100 100 98 101 101 102 103 103 103 102 102 99 98 94 98 103 103 107 106 107 105 105 104 105 105 105 107 109 109 109 108 107 106 105 104 105 104 103 105 103 104 104 105 105 104 105 105 105 106 109 107 106 107 106 107 107 104 105 103 103 102 103 104 104 104 104 104 104 105 106 107 106 104 102 101 0 0 0 0 0 0 0 0 0 0 0 0 0 0 0 0 0 0 0 0 0 0 0 0 0 0 0 0 0 0 0 0 0 0 0 0 0 0 0 0 0 0 0 0 0 0 0 0 0 0 0 0 0 0 0 0 0 0 0 0 0 0 0 0 0 0 0 0 0 0 0 0 0 0 0 0 0 0 0 0 0 0 0 0 0 0 0 0 0 0 0 0
0 0 0 0 0 0 0 0 0 0 0 0 0 0 0 0 0 0 0 0 0 0 0 0 0 0 0 0 0 0 0 0 0 0 0 0 0 0 0 0 0 0 0 0 0 0 0 0 0 0 0 0 0 0 0 0 0 0 0 0 0 58 85 84 81 79 81 84 86 89 90 91 93 91 91 94 92 92 91 95 98 98 99 98 97 95 94 94 90 90 90 93 91 88 84 84 85 85 85 85 86 87 89 89 90 88 90 90 90 92 92 90 90 89 91 90 85 86 87 88 89 91 86 92 92 85 85 86 85 89 90 86 86 86 87 86 86 87 86 86 85 86 89 89 87 87 87 90 89 86 88 85 85 87 88 89 86 87 87 86 85 87 89 89 87 86 89 88 91 88 87 87 90 92 91 90 89 89 89 87 86 86 87 88 91 92 89 92 92 89 87 92 91 95 96 96 94 87 88 106 106 107 91 89 88 86 86 87 88 90 92 91 91 91 89 92 92 88 87 87 85 87 89 88 88 88 88 87 87 87 88 89 94 89 89 94 94 93 89 89 90 89 88 88 88 88 89 89 89 93 94 93 97 96 98 98 103 102 105 107 104 102 103 101 103 103 104 103 105 105 103 104 102 102 98 101 107 105 103 102 102 102 101 101 106 106 107 111 110 108 106 107 106 104 104 106 104 104 103 104 103 104 105 104 104 104 104 105 105 107 108 108 107 105 107 107 107 106 104 104 103 103 103 105 102 103 106 104 104 105 107 105 0 0 0 0 0 0 0 0 0 0 0 0 0 0 0 0 0 0 0 0 0 0 0 0 0 0 0 0 0 0 0 0 0 0 0 0 0 0 0 0 0 0 0 0 0 0 0 0 0 0 0 0 0 0 0 0 0 0 0 0 0 0 0 0 0 0 0 0 0 0 0 0 0 0 0 0 0 0 0 0 0 0 0 0 0 0 0 0 0 0 0 0 0 0 0 0
0 0 0 0 0 0 0 0 0 0 0 0 0 0 0 0 0 0 0 0 0 0 0 0 0 0 0 0 0 0 0 0 0 0 0 0 0 0 0 0 0 0 0 0 0 0 0 0 0 0 0 0 0 0 0 0 0 0 0 0 82 84 83 80 77 76 81 85 86 90 89 88 89 88 89 91 91 91 91 92 94 95 94 92 92 94 92 88 91 93 91 92 92 88 83 86 87 84 85 85 86 89 88 91 90 88 88 90 91 92 94 92 93 90 90 89 89 85 89 91 90 91 86 87 88 87 90 90 88 90 90 84 85 85 86 87 85 85 84 82 82 84 85 86 85 87 88 88 86 86 85 84 85 87 89 86 85 85 87 86 88 86 86 87 86 85 86 88 90 87 88 86 90 92 91 91 89 87 86 86 87 87 88 91 91 92 90 88 88 89 92 92 91 90 90 96 96 89 88 107 106 107 87 88 86 86 87 87 89 89 90 89 90 93 91 88 88 86 85 84 93 98 95 89 88 88 88 87 87 88 89 89 89 89 89 94 92 89 93 95 91 89 88 89 88 89 89 88 89 97 96 96 95 102 100 101 103 104 107 102 101 101 99 98 98 100 103 103 104 102 102 103 101 106 106 106 107 103 101 101 102 102 102 103 106 105 107 112 112 111 109 104 103 103 102 101 99 98 100 101 100 99 101 102 101 102 101 100 103 103 105 103 101 100 102 103 103 102 101 101 100 101 100 101 99 100 103 101 102 102 104 102 0 0 0 0 0 0 0 0 0 0 0 0 0 0 0 0 0 0 0 0 0 0 0 0 0 0 0 0 0 0 0 0 0 0 0 0 0 0 0 0 0 0 0 0 0 0 0 0 0 0 0 0 0 0 0 0 0 0 0 0 0 0 0 0 0 0 0 0 0 0 0 0 0 0 0 0 0 0 0 0 0 0 0 0 0 0 0 0 0 0 0 0 0 0 0 0
0 0 0 0 0 0 0 0 0 0 0 0 0 0 0 0 0 0 0 0 0 0 0 0 0 0 0 0 0 0 0 0 0 0 0 0 0 0 0 0 0 0 0 0 0 0 0 0 0 0 0 0 0 0 0 0 0 0 0 83 83 83 83 84 81 79 77 84 86 92 91 89 89 89 87 92 91 92 93 94 95 96 91 90 94 93 92 87 90 94 91 94 91 90 84 89 91 86 85 86 85 84 83 87 87 85 86 87 89 91 91 91 92 92 89 91 92 85 87 89 88 85 85 89 90 88 91 92 90 87 88 85 85 86 86 86 86 85 84 83 84 82 84 87 86 86 89 87 88 85 85 85 85 85 86 86 87 89 90 89 90 86 87 88 87 87 87 88 90 89 89 86 87 86 86 86 87 88 87 88 91 93 88 89 88 90 89 86 91 92 91 89 89 90 91 89 92 89 87 87 106 106 87 90 90 87 88 87 91 91 87 91 91 92 88 87 86 85 86 89 95 96 94 88 88 88 88 87 88 89 92 95 94 89 88 89 89 90 95 94 89 90 90 90 88 89 88 89 89 92 96 97 98 97 96 104 103 105 105 101 99 99 100 100 102 103 104 105 104 104 105 104 104 105 108 106 106 103 102 102 101 101 101 102 101 102 105 107 107 107 105 106 104 104 103 102 100 98 99 99 100 101 99 101 101 100 102 101 101 102 104 103 103 101 101 102 103 103 102 102 102 101 100 102 100 102 102 104 103 102 103 101 0 0 0 0 0 0 0 0 0 0 0 0 0 0 0 0 0 0 0 0 0 0 0 0 0 0 0 0 0 0 0 0 0 0 0 0 0 0 0 0 0 0 0 0 0 0 0 0 0 0 0 0 0 0 0 0 0 0 0 0 0 0 0 0 0 0 0 0 0 0 0 0 0 0 0 0 0 0 0 0 0 0 0 0 0 0 0 0 0 0 0 0 0 0 0 0
0 0 0 0 0 0 0 0 0 0 0 0 0 0 0 0 0 0 0 0 0 0 0 0 0 0 0 0 0 0 0 0 0 0 0 0 0 0 0 0 0 0 0 0 0 0 0 0 0 0 0 0 0 0 0 0 0 83 83 83 83 84 83 83 84 83 81 90 89 84 83 82 82 85 88 89 89 91 91 93 95 94 89 89 95 93 91 91 90 90 90 90 89 88 86 86 86 86 86 85 83 82 85 85 84 84 87 86 87 90 89 90 90 90 90 89 87 85 88 91 91 85 84 87 86 86 86 85 86 89 89 86 86 85 87 87 86 86 85 85 83 83 85 87 86 84 88 86 87 86 85 86 85 86 91 91 90 87 89 87 86 85 88 89 89 91 88 88 88 88 87 91 91 88 86 85 87 90 91 92 92 94 91 88 87 88 89 88 91 89 88 89 89 89 88 88 88 88 87 87 106 106 107 88 87 87 87 88 91 92 88 92 89 87 87 86 85 94 98 95 88 88 88 87 88 100 95 90 90 95 95 93 91 88 89 89 89 89 89 89 89 89 90 90 89 88 88 89 89 89 100 101 99 98 96 99 103 106 105 102 98 98 101 103 106 104 102 103 107 105 106 105 104 105 106 104 105 102 102 102 100 100 100 100 101 101 103 105 106 106 102 105 102 103 103 101 101 100 99 98 99 101 101 101 101 103 104 102 101 101 103 104 102 102 102 101 102 102 102 101 101 102 102 101 101 103 102 103 103 104 103 99 0 0 0 0 0 0 0 0 0 0 0 0 0 0 0 0 0 0 0 0 0 0 0 0 0 0 0 0 0 0 0 0 0 0 0 0 0 0 0 0 0 0 0 0 0 0 0 0 0 0 0 0 0 0 0 0 0 0 0 0 0 0 0 0 0 0 0 0 0 0 0 0 0 0 0 0 0 0 0 0 0 0 0 0 0 0 0 0 0 0 0 0 0 0 0 0
0 0 0 0 0 0 0 0 0 0 0 0 0 0 0 0 0 0 0 0 0 0 0 0 0 0 0 0 0 0 0 0 0 0 0 0 0 0 0 0 0 0 0 0 0 0 0 0 0 0 0 0 0 0 0 0 84 83 83 83 83 83 83 83 84 83 84 82 82 81 81 77 75 87 88 89 91 92 92 94 94 93 91 92 91 91 91 91 91 90 91 90 87 88 86 86 86 86 87 85 84 83 86 83 82 85 91 91 87 87 87 89 89 88 90 89 86 85 87 88 92 86 85 87 90 90 90 91 87 87 87 86 88 87 87 87 87 86 85 85 88 88 91 88 85 84 85 84 88 89 88 87 89 86 86 86 87 91 87 87 87 86 89 87 87 91 86 86 86 86 87 89 92 90 89 87 90 88 88 88 87 87 88 88 88 90 90 92 92 89 89 88 88 87 88 90 89 88 87 87 88 106 107 87 87 87 88 87 87 87 87 88 90 90 92 91 89 94 98 96 87 88 88 87 101 104 101 92 90 95 94 89 89 89 89 88 88 88 89 89 90 89 90 92 90 89 89 89 89 88 100 100 99 96 94 96 103 100 102 102 98 97 98 100 102 104 102 103 101 106 106 104 104 105 103 102 103 102 102 101 101 102 102 100 101 102 103 104 105 103 102 103 102 102 103 102 101 99 101 103 101 101 101 103 102 101 102 103 102 104 102 103 102 101 101 102 105 102 103 103 102 102 102 102 99 100 103 103 103 104 101 93 0 0 0 0 0 0 0 0 0 0 0 0 0 0 0 0 0 0 0 0 0 0 0 0 0 0 0 0 0 0 0 0 0 0 0 0 0 0 0 0 0 0 0 0 0 0 0 0 0 0 0 0 0 0 0 0 0 0 0 0 0 0 0 0 0 0 0 0 0 0 0 0 0 0 0 0 0 0 0 0 0 0 0 0 0 0 0 0 0 0 0 0 0 0 0 0
0 0 0 0 0 0 0 0 0 0 0 0 0 0 0 0 0 0 0 0 0 0 0 0 0 0 0 0 0 0 0 0 0 0 0 0 0 36 37 38 40 43 47 52 0 0 0 0 0 0 0 0 0 0 0 0 86 87 88 83 83 83 83 83 83 83 83 83 84 83 83 82 81 80 78 78 91 94 93 95 95 91 94 87 84 84 86 87 85 85 89 84 84 88 87 86 85 86 87 86 87 90 90 87 85 94 95 95 93 91 92 88 89 88 89 89 88 87 85 85 85 85 85 86 90 91 91 91 88 88 90 87 89 88 88 88 87 87 87 87 88 86 85 84 83 81 82 88 90 91 90 89 91 90 86 86 89 92 91 89 89 87 87 86 85 85 85 85 85 86 86 91 90 89 86 86 87 86 86 90 88 89 90 89 90 91 92 91 92 91 88 88 87 87 88 88 87 87 87 87 88 107 108 88 87 87 88 88 88 87 87 92 93 94 95 94 89 88 93 87 88 88 88 99 100 101 97 90 89 90 88 88 88 87 88 88 88 88 92 94 95 93 89 103 99 91 89 89 89 88 90 99 98 98 95 94 98 102 103 102 99 99 98 100 107 106 103 101 105 105 103 103 101 102 102 102 100 99 103 102 101 100 102 101 102 101 101 108 105 103 101 100 102 102 102 102 102 102 101 101 104 103 105 103 101 103 103 104 101 102 103 102 101 100 102 101 102 103 102 102 101 101 99 102 100 102 103 104 102 103 102 0 0 0 0 0 0 0 0 0 0 0 0 0 0 0 0 0 0 0 0 0 0 0 0 0 0 0 0 0 0 0 0 0 0 0 0 0 0 0 0 0 0 0 0 0 0 0 0 0 0 0 0 0 0 0 0 0 0 0 0 0 0 0 0 0 0 0 0 0 0 0 0 0 0 0 0 0 0 0 0 0 0 0 0 0 0 0 0 0 0 0 0 0 0 0 0 0
0 0 0 0 0 0 0 0 0 0 0 0 0 0 0 0 0 0 0 0 0 0 0 0 0 0 0 0 0 0 0 0 0 0 0 35 34 34 34 35 38 41 45 50 57 63 0 0 0 0 0 0 0 0 0 0 91 93 84 80 80 82 83 83 83 83 83 84 83 83 83 84 84 84 82 82 80 93 95 96 91 90 84 84 83 83 82 82 85 84 81 84 90 89 87 85 86 85 88 84 90 89 91 88 86 91 96 97 96 95 94 87 87 87 88 88 88 87 85 85 85 85 85 85 85 85 87 85 85 89 91 88 88 88 88 87 87 87 88 85 87 84 83 88 85 89 90 87 86 91 92 90 89 87 85 85 86 90 91 89 90 87 85 85 85 85 86 86 86 86 86 88 89 89 87 91 90 88 87 87 91 89 88 88 88 89 92 91 92 93 88 87 87 88 87 87 87 87 90 88 89 110 110 105 89 89 89 89 88 88 89 94 94 95 93 91 88 87 87 87 87 88 88 99 99 96 92 91 91 90 88 88 88 88 88 90 93 94 95 94 96 95 98 102 103 100 90 88 89 88 89 102 98 96 95 96 100 100 99 103 102 100 100 103 107 106 102 101 104 103 101 99 100 99 100 99 99 100 102 101 101 102 102 103 105 106 102 104 102 103 99 101 102 101 102 101 103 103 100 99 102 104 101 104 102 103 102 103 103 103 103 102 102 100 101 102 102 102 102 101 101 101 98 99 102 105 104 105 102 103 100 0 0 0 0 0 0 0 0 0 0 0 0 0 0 0 0 0 0 0 0 0 0 0 0 0 0 0 0 0 0 0 0 0 0 0 0 0 0 0 0 0 0 0 0 0 0 0 0 0 0 0 0 0 0 0 0 0 0 0 0 0 0 0 0 0 0 0 0 0 0 0 0 0 0 0 0 0 0 0 0 0 0 0 0 0 0 0 0 0 0 0 0 0 0 0 0 0
0 0 0 0 0 0 0 0 0 0 0 0 0 0 0 0 0 0 0 0 0 0 0 0 0 0 0 0 0 0 0 0 0 0 34 33 32 31 31 33 35 39 43 49 56 63 70 0 0 0 0 0 0 0 88 91 92 93 84 81 77 76 80 82 83 83 83 83 83 83 83 83 84 84 83 84 84 84 84 82 81 81 83 88 87 86 84 83 84 83 84 90 89 88 86 85 85 85 86 88 89 89 86 86 87 85 91 92 95 92 94 86 88 86 87 87 88 86 85 85 85 86 85 85 87 88 87 87 86 88 90 87 88 87 87 87 87 87 88 86 86 84 89 90 90 89 92 91 90 86 90 90 86 85 85 91 89 86 87 89 88 86 86 85 85 86 91 87 86 85 86 89 89 89 88 92 91 91 92 88 92 90 87 87 88 89 89 92 93 94 92 88 87 87 87 88 93 98 97 93 91 105 108 108 88 87 87 88 88 88 88 89 90 91 90 88 88 87 87 96 97 99 98 94 92 91 90 89 87 87 88 89 92 91 96 93 94 94 93 95 98 96 100 102 105 104 94 89 89 89 89 100 99 97 94 95 98 101 101 100 101 103 105 105 107 104 100 97 98 99 100 98 97 97 99 97 98 100 97 102 105 104 102 105 108 105 105 105 103 101 100 101 102 99 102 102 100 100 101 102 104 103 104 103 101 103 102 103 103 102 103 102 102 102 99 101 101 102 102 102 101 100 101 100 102 103 101 102 103 103 102 0 0 0 0 0 0 0 0 0 0 0 0 0 0 0 0 0 0 0 0 0 0 0 0 0 0 0 0 0 0 0 0 0 0 0 0 0 0 0 0 0 0 0 0 0 0 0 0 0 0 0 0 0 0 0 0 0 0 0 0 0 0 0 0 0 0 0 0 0 0 0 0 0 0 0 0 0 0 0 0 0 0 0 0 0 0 0 0 0 0 0 0 0 0 0 0 0
0 0 0 0 0 0 0 0 0 0 0 0 0 0 0 0 0 0 0 0 0 0 0 0 0 0 0 0 0 0 0 0 0 0 32 31 30 29 29 31 33 37 42 48 55 63 70 0 0 0 0 0 0 91 92 92 92 84 81 80 77 77 79 83 82 81 83 83 83 83 83 83 83 83 84 84 83 84 84 83 82 81 82 84 87 89 85 83 82 82 89 92 89 86 86 85 84 85 78 88 87 87 85 85 86 81 85 89 90 84 88 87 88 84 84 86 87 87 85 90 90 86 84 86 88 88 88 90 87 87 86 87 89 87 87 87 87 86 86 88 84 84 85 88 90 88 89 91 92 90 85 85 85 89 87 91 90 87 86 86 87 88 86 85 89 90 90 87 87 85 85 86 86 88 89 87 88 89 90 87 89 88 87 87 86 86 88 87 93 94 92 87 87 86 90 93 96 100 101 97 94 88 108 108 88 88 88 89 89 88 88 93 95 97 96 94 89 89 91 98 100 102 98 90 86 84 86 86 88 90 93 96 96 96 96 95 94 95 97 98 100 97 100 105 105 106 105 103 90 89 89 89 96 95 93 93 94 100 99 100 101 98 102 108 104 102 99 96 94 96 98 98 95 97 96 95 97 96 98 104 105 106 105 108 108 106 107 106 102 99 98 97 98 97 100 100 100 101 100 101 100 99 99 99 100 100 100 101 100 100 99 98 99 99 98 99 100 100 99 100 100 99 99 99 99 98 98 101 101 99 0 0 0 0 0 0 0 0 0 0 0 0 0 0 0 0 0 0 0 0 0 0 0 0 0 0 0 0 0 0 0 0 0 0 0 0 0 0 0 0 0 0 0 0 0 0 0 0 0 0 0 0 0 0 0 0 0 0 0 0 0 0 0 0 0 0 0 0 0 0 0 0 0 0 0 0 0 0 0 0 0 0 0 0 0 0 0 0 0 0 0 0 0 0 0 0 0 0
0 0 0 0 0 0 0 0 0 0 0 0 0 0 0 0 0 0 0 0 0 0 0 0 0 0 0 0 0 0 0 0 0 0 31 29 28 27 27 28 31 36 41 47 55 63 70 77 0 0 0 90 91 92 92 92 93 83 80 79 78 76 79 82 81 80 79 81 82 82 83 83 83 83 83 83 83 83 84 84 84 84 83 84 85 85 85 86 84 89 90 90 87 86 87 84 85 83 86 88 88 90 89 89 88 86 82 86 87 84 85 83 83 80 79 80 81 84 84 89 89 85 85 85 87 86 85 87 85 86 86 88 88 91 87 86 86 86 87 86 86 86 88 85 88 88 90 90 90 86 85 86 87 91 91 88 88 90 91 90 86 86 92 91 86 86 90 88 86 86 86 85 86 87 89 86 89 91 89 88 89 89 87 86 86 87 89 90 91 91 91 88 87 87 91 92 98 105 104 93 91 87 106 107 88 87 87 88 88 88 88 93 97 99 99 97 91 88 92 94 95 94 88 87 87 89 91 91 94 94 94 96 97 97 96 96 97 96 100 102 98 99 102 106 108 106 106 104 90 90 89 88 89 92 88 92 92 91 93 98 101 99 103 104 101 100 99 97 98 98 98 96 96 96 98 95 96 100 101 102 106 107 106 106 105 105 104 103 100 100 97 98 98 100 99 99 98 100 99 103 100 100 99 100 99 100 99 100 101 100 99 98 99 100 99 98 101 100 99 101 99 98 98 97 98 99 99 100 100 98 0 0 0 0 0 0 0 0 0 0 0 0 0 0 0 0 0 0 0 0 0 0 0 0 0 0 0 0 0 0 0 0 0 0 0 0 0 0 0 0 0 0 0 0 0 0 0 0 0 0 0 0 0 0 0 0 0 0 0 0 0 0 0 0 0 0 0 0 0 0 0 0 0 0 0 0 0 0 0 0 0 0 0 0 0 0 0 0 0 0 0 0 0 0 0 0 0 0
0 0 0 0 0 0 0 0 0 0 0 0 0 0 0 0 0 0 0 0 0 0 0 0 0 0 0 0 0 0 0 0 0 0 0 28 26 25 25 26 29 34 40 47 55 63 71 78 85 0 91 91 92 92 92 92 83 80 82 78 79 82 83 84 85 87 83 81 80 81 81 84 83 83 83 83 83 83 83 84 84 84 85 85 84 84 84 84 84 88 88 86 86 86 86 86 84 87 90 89 86 88 88 89 91 89 84 84 80 80 87 85 82 79 84 85 84 85 85 85 86 87 87 87 89 90 88 90 86 89 87 87 86 89 86 86 86 86 86 85 85 87 92 90 86 87 91 92 91 86 86 85 86 87 90 91 90 90 91 90 87 87 92 91 88 91 91 90 86 92 90 87 90 91 90 86 86 86 86 89 89 88 89 88 86 86 89 90 88 87 86 87 87 89 92 94 94 101 97 90 91 88 107 107 107 88 87 87 88 88 88 92 94 94 93 94 90 89 89 89 88 89 92 92 93 95 95 95 94 96 94 99 99 96 96 100 97 97 99 101 101 100 103 103 105 107 106 104 99 90 89 88 89 88 88 88 89 91 91 92 97 100 103 104 103 100 100 98 98 99 99 100 99 98 98 97 99 98 102 101 101 104 105 103 105 104 102 100 100 100 99 98 97 99 96 97 97 100 100 103 103 102 99 100 100 99 98 99 100 100 101 100 99 98 100 100 101 101 101 101 100 99 99 97 98 99 98 100 100 99 0 0 0 0 0 0 0 0 0 0 0 0 0 0 0 0 0 0 0 0 0 0 0 0 0 0 0 0 0 0 0 0 0 0 0 0 0 0 0 0 0 0 0 0 0 0 0 0 0 0 0 0 0 0 0 0 0 0 0 0 0 0 0 0 0 0 0 0 0 0 0 0 0 0 0 0 0 0 0 0 0 0 0 0 0 0 0 0 0 0 0 0 0 0 0 0 0 0
0 0 0 0 0 0 0 0 0 0 0 0 0 0 0 0 0 0 0 0 0 0 0 0 0 0 0 0 0 0 0 0 0 0 0 26 25 24 23 23 25 33 39 46 55 64 71 78 86 92 92 91 92 92 91 83 83 83 79 73 77 70 82 82 90 84 83 86 83 82 81 84 83 83 83 83 83 83 83 84 84 84 84 85 86 86 84 84 84 81 88 85 86 86 86 84 84 84 85 85 84 86 86 87 87 85 85 84 83 82 86 87 84 87 90 91 89 85 84 89 86 87 87 88 87 88 89 91 87 90 87 86 86 89 86 87 86 85 85 84 85 89 91 90 90 88 85 88 87 88 87 86 88 87 86 90 92 92 88 87 86 91 90 90 87 90 90 87 86 87 91 88 87 90 90 87 87 87 87 86 87 87 90 89 87 86 87 87 89 88 86 87 88 90 92 95 94 97 94 91 98 97 86 107 107 88 88 87 88 88 89 91 89 85 85 87 90 88 88 91 93 94 94 95 94 94 93 95 96 96 95 96 97 96 101 104 101 101 103 100 101 101 102 106 107 106 106 103 103 99 89 88 89 89 88 88 88 88 88 89 100 105 104 103 102 102 102 100 100 102 102 104 102 100 98 101 100 97 102 102 102 105 106 108 107 106 101 100 100 99 98 97 98 99 99 98 97 102 102 102 100 100 99 98 100 98 99 100 99 99 100 101 100 100 100 100 102 100 100 100 100 98 99 98 98 98 99 100 100 0 0 0 0 0 0 0 0 0 0 0 0 0 0 0 0 0 0 0 0 0 0 0 0 0 0 0 0 0 0 0 0 0 0 0 0 0 0 0 0 0 0 0 0 0 0 0 0 0 0 0 0 0 0 0 0 0 0 0 0 0 0 0 0 0 0 0 0 0 0 0 0 0 0 0 0 0 0 0 0 0 0 0 0 0 0 0 0 0 0 0 0 0 0 0 0 0 0 0
0 0 0 0 0 0 0 0 0 0 0 0 0 0 0 0 0 0 0 0 0 0 0 0 0 0 0 0 0 0 0 0 0 0 0 24 23 23 22 20 22 32 39 47 57 67 74 80 90 95 91 88 86 83 83 83 80 82 85 83 83 83 85 87 89 87 89 89 88 89 85 84 84 83 84 84 84 83 84 84 84 85 84 85 84 84 84 84 84 90 88 87 81 82 85 85 86 86 85 85 84 87 88 86 85 84 85 84 85 85 85 84 81 86 85 87 87 84 91 92 91 86 85 89 89 88 89 88 86 87 87 88 87 87 87 86 87 86 84 83 88 91 90 90 89 91 89 86 86 91 91 89 88 90 90 86 90 88 86 91 89 91 93 91 89 89 87 86 86 87 88 87 88 87 87 87 87 87 87 87 86 87 89 88 88 87 86 87 88 87 87 88 88 91 93 93 96 97 97 97 97 96 97 107 107 88 87 87 87 87 88 87 90 90 92 92 93 97 96 96 94 94 95 96 93 96 98 99 100 100 102 104 99 104 105 106 102 103 101 99 101 101 101 105 106 101 103 103 104 102 101 99 89 89 88 89 88 88 89 92 102 106 105 103 102 101 102 104 104 104 104 104 103 102 101 99 97 97 105 104 106 107 107 107 108 106 102 102 101 98 98 99 99 100 102 102 99 102 102 101 101 102 101 98 99 99 99 99 99 99 99 100 101 103 100 101 101 101 99 100 100 99 99 98 99 99 99 100 99 0 0 0 0 0 0 0 0 0 0 0 0 0 0 0 0 0 0 0 0 0 0 0 0 0 0 0 0 0 0 0 0 0 0 0 0 0 0 0 0 0 0 0 0 0 0 0 0 0 0 0 0 0 0 0 0 0 0 0 0 0 0 0 0 0 0 0 0 0 0 0 0 0 0 0 0 0 0 0 0 0 0 0 0 0 0 0 0 0 0 0 0 0 0 0 0 0 0 0
0 0 0 0 0 0 0 0 0 0 0 0 0 0 0 0 0 0 0 0 0 0 0 0 0 0 0 0 0 0 0 0 0 0 0 23 21 22 24 25 26 33 39 48 61 74 83 90 85 83 83 83 82 80 80 80 83 85 90 87 90 89 91 91 91 92 92 91 83 82 84 85 84 83 84 84 85 84 85 84 84 84 84 84 84 84 84 84 92 92 93 82 80 80 81 83 84 85 84 85 85 88 89 88 86 87 86 86 85 85 86 86 84 86 85 85 86 85 86 88 90 86 86 89 91 88 90 89 85 86 88 88 92 90 86 87 86 84 81 83 87 89 90 87 87 90 91 87 85 88 91 91 91 90 90 86 85 85 86 89 86 87 89 89 91 90 91 89 86 89 89 88 87 87 87 87 87 87 87 87 86 87 87 86 87 87 91 89 87 87 88 89 87 86 91 91 95 99 98 97 99 95 97 104 106 90 92 94 95 90 87 89 92 93 93 94 95 96 95 96 95 96 93 97 95 96 100 96 95 102 102 103 102 102 105 104 102 100 101 102 101 99 101 104 102 98 100 101 100 101 101 102 89 90 89 89 89 89 93 100 101 103 104 105 104 106 104 110 109 107 103 103 102 105 104 101 99 106 105 105 105 108 107 107 106 106 102 100 100 98 98 97 99 102 101 100 100 101 103 101 99 101 100 98 99 99 99 99 98 97 99 99 101 103 100 99 102 101 99 99 100 99 98 99 101 99 100 99 100 0 0 0 0 0 0 0 0 0 0 0 0 0 0 0 0 0 0 0 0 0 0 0 0 0 0 0 0 0 0 0 0 0 0 0 0 0 0 0 0 0 0 0 0 0 0 0 0 0 0 0 0 0 0 0 0 0 0 0 0 0 0 0 0 0 0 0 0 0 0 0 0 0 0 0 0 0 0 0 0 0 0 0 0 0 0 0 0 0 0 0 0 0 0 0 0 0 0 0
0 0 0 0 0 0 0 0 0 0 0 0 0 0 0 0 0 0 0 0 0 0 0 0 0 0 0 0 0 0 0 0 0 0 0 0 19 20 23 25 29 34 40 48 62 77 83 82 84 80 79 77 80 84 85 87 89 87 89 90 91 96 93 88 92 93 93 90 91 82 88 85 83 84 84 85 84 84 84 85 84 85 85 83 84 83 84 84 92 92 89 84 85 84 83 83 85 85 86 88 88 89 88 88 91 90 85 85 86 86 90 91 87 85 86 86 83 84 83 83 85 86 86 90 91 90 90 87 85 87 86 87 87 88 86 86 84 84 83 87 86 86 86 90 89 88 86 89 89 87 87 89 91 90 89 88 85 86 91 92 87 87 91 87 89 90 91 90 87 90 88 87 87 87 89 88 87 87 87 86 86 86 87 87 88 91 91 87 86 87 89 87 87 87 89 90 100 102 99 97 99 97 98 101 102 102 97 98 98 97 89 88 92 94 96 96 97 96 99 99 98 96 95 96 96 96 101 103 101 101 104 104 102 102 103 102 102 103 101 101 101 99 101 100 99 98 101 103 103 103 100 100 102 90 89 90 90 92 103 106 104 104 109 109 107 105 103 104 107 106 104 101 103 103 102 102 102 105 105 105 106 107 108 106 105 103 100 100 99 98 99 99 99 100 99 100 101 102 102 101 98 98 100 100 100 100 98 99 99 98 99 99 99 101 100 99 100 100 99 99 100 98 97 100 102 101 101 99 13 0 0 0 0 0 0 0 0 0 0 0 0 0 0 0 0 0 0 0 0 0 0 0 0 0 0 0 0 0 0 0 0 0 0 0 0 0 0 0 0 0 0 0 0 0 0 0 0 0 0 0 0 0 0 0 0 0 0 0 0 0 0 0 0 0 0 0 0 0 0 0 0 0 0 0 0 0 0 0 0 0 0 0 0 0 0 0 0 0 0 0 0 0 0 0 0 0 0 0
0 0 0 0 0 0 0 0 0 0 0 0 0 0 0 0 0 0 0 0 0 0 0 0 0 0 0 0 0 0 0 0 0 0 0 0 21 22 24 27 30 34 40 49 61 74 78 79 79 80 80 81 82 87 89 92 91 91 86 85 89 98 89 93 90 88 95 84 91 84 85 86 83 84 85 85 85 84 81 82 83 85 84 84 83 83 83 91 92 84 90 85 85 84 84 84 84 85 86 88 87 85 85 85 91 90 87 86 86 85 85 85 85 85 85 85 82 84 83 88 89 85 88 90 90 88 89 87 85 85 86 86 85 85 85 85 83 80 85 88 88 86 86 90 91 87 86 90 91 89 89 89 88 88 88 86 85 86 89 87 87 87 91 88 88 88 86 86 86 88 87 86 87 88 91 92 92 88 87 86 86 87 88 90 88 91 87 86 86 88 89 87 88 89 90 90 99 100 99 99 103 101 99 101 102 102 100 100 99 102 99 95 93 94 95 94 93 97 100 99 100 99 103 104 104 103 103 104 104 102 103 105 106 105 105 103 105 106 101 102 103 102 102 102 103 100 103 103 103 102 102 101 104 101 98 100 98 105 104 105 105 106 108 108 108 109 108 105 105 104 105 107 106 103 103 105 106 106 106 107 107 106 107 107 107 102 99 98 98 98 97 97 97 97 97 98 98 100 101 98 98 97 96 97 97 96 96 95 96 96 97 97 97 98 96 97 95 97 97 97 97 95 95 95 99 99 98 97 0 0 0 0 0 0 0 0 0 0 0 0 0 0 0 0 0 0 0 0 0 0 0 0 0 0 0 0 0 0 0 0 0 0 0 0 0 0 0 0 0 0 0 0 0 0 0 0 0 0 0 0 0 0 0 0 0 0 0 0 0 0 0 0 0 0 0 0 0 0 0 0 0 0 0 0 0 0 0 0 0 0 0 0 0 0 0 0 0 0 0 0 0 0 0 0 0 0 0 0
0 0 0 0 0 0 0 0 0 0 0 0 0 0 0 0 0 0 0 0 0 0 0 0 0 0 0 0 0 0 0 0 0 0 0 0 0 24 26 28 31 35 41 48 60 70 75 78 79 80 85 86 88 90 96 93 91 94 93 90 92 87 91 97 98 89 93 83 87 92 89 101 84 84 84 81 82 81 84 82 82 82 82 84 84 83 91 91 84 84 85 85 84 84 85 85 85 85 85 85 85 86 85 85 85 85 85 88 88 85 85 85 87 86 85 84 84 84 86 89 90 84 84 87 87 90 90 87 84 88 85 83 83 83 85 85 84 81 86 90 89 87 89 86 87 85 90 89 88 87 89 88 85 90 87 85 85 85 91 87 85 87 87 87 88 89 88 87 88 89 87 86 87 88 88 88 89 88 87 86 86 86 91 93 90 86 86 86 87 88 88 87 90 89 93 94 100 100 100 99 97 95 97 101 99 100 106 99 100 100 100 103 96 90 95 89 87 86 95 97 97 97 99 102 101 100 100 99 100 100 101 106 107 104 101 102 105 104 101 101 103 100 101 100 102 103 103 103 104 107 102 103 103 105 104 107 108 106 107 106 105 104 109 108 107 107 108 106 103 101 101 103 104 102 103 105 105 106 105 105 105 106 106 107 103 100 99 99 98 99 97 97 96 99 96 97 97 101 99 99 97 97 97 98 97 96 97 98 96 96 97 99 97 97 96 97 97 96 97 96 96 95 96 100 99 98 99 99 0 0 0 0 0 0 0 0 0 0 0 0 0 0 0 0 0 0 0 0 0 0 0 0 0 0 0 0 0 0 0 0 0 0 0 0 0 0 0 0 0 0 0 0 0 0 0 0 0 0 0 0 0 0 0 0 0 0 0 0 0 0 0 0 0 0 0 0 0 0 0 0 0 0 0 0 0 0 0 0 0 0 0 0 0 0 0 0 0 0 0 0 0 0 0 0 0 0 0 0
0 0 0 0 0 0 0 0 0 0 0 0 0 0 0 0 0 0 0 0 0 0 0 0 0 0 0 0 0 0 0 0 0 0 0 0 0 0 3 29 32 36 41 48 57 65 71 79 82 86 89 90 91 90 96 98 90 93 92 92 92 89 94 98 97 83 85 92 93 89 90 88 87 87 82 81 81 82 83 85 83 84 81 81 81 91 91 91 84 84 84 84 85 85 85 85 85 85 85 85 84 83 87 88 86 85 85 90 90 85 84 81 81 81 81 81 84 84 85 85 84 84 85 86 87 91 89 85 85 89 88 84 82 81 86 84 81 84 88 89 88 89 91 90 87 90 90 91 90 88 87 85 85 86 85 86 85 85 85 89 87 86 86 87 87 88 88 87 87 89 87 86 86 89 89 90 92 91 88 86 86 88 88 89 89 86 86 87 88 87 86 87 91 95 95 100 102 100 100 96 89 89 91 96 95 97 100 102 99 101 98 101 101 93 88 86 89 87 87 95 97 99 98 96 99 98 97 97 98 100 103 105 104 102 102 103 103 103 103 104 104 100 100 100 99 101 102 98 100 105 105 105 106 104 104 108 109 107 108 106 106 104 105 105 105 107 107 106 104 103 101 101 102 100 107 106 105 104 105 105 105 104 107 105 102 99 97 96 97 97 96 96 95 98 99 97 100 98 97 97 97 99 98 99 97 97 98 97 96 98 97 97 97 97 98 96 96 96 96 97 98 96 98 100 99 98 100 0 0 0 0 0 0 0 0 0 0 0 0 0 0 0 0 0 0 0 0 0 0 0 0 0 0 0 0 0 0 0 0 0 0 0 0 0 0 0 0 0 0 0 0 0 0 0 0 0 0 0 0 0 0 0 0 0 0 0 0 0 0 0 0 0 0 0 0 0 0 0 0 0 0 0 0 0 0 0 0 0 0 0 0 0 0 0 0 0 0 0 0 0 0 0 0 0 0 0 0 0
0 0 0 0 0 0 0 0 0 0 0 0 0 0 0 0 0 0 0 0 0 0 0 0 0 0 0 0 0 0 0 0 0 0 0 0 0 0 0 0 34 38 42 48 55 65 71 77 82 87 90 92 92 90 93 97 90 93 95 95 99 91 90 95 96 89 67 90 94 92 84 87 87 86 86 84 83 84 83 85 84 82 84 87 90 90 91 86 85 85 84 84 84 84 84 85 85 85 85 85 85 84 83 84 86 84 84 83 82 81 81 81 88 90 90 85 84 84 90 88 86 90 86 85 85 85 85 85 86 87 89 86 83 81 82 81 82 87 87 85 86 90 88 89 90 89 86 87 88 88 86 86 86 86 86 86 86 85 85 85 85 86 86 85 88 86 88 86 86 86 88 86 86 87 89 93 94 93 93 92 89 92 92 89 86 86 87 88 87 88 88 87 89 89 89 90 92 98 97 94 89 89 89 92 93 95 96 97 101 101 97 99 96 98 88 87 86 89 101 99 101 102 101 96 93 90 92 94 98 100 104 102 102 101 101 101 100 100 103 103 101 101 97 98 98 99 99 97 100 103 103 106 105 105 105 108 109 109 107 106 105 104 104 103 103 107 105 105 104 102 102 100 100 102 107 106 104 104 103 103 106 106 103 103 100 97 97 96 98 97 96 95 97 95 96 96 98 98 98 96 99 99 98 100 98 97 99 98 97 98 97 97 97 96 98 96 96 96 98 97 97 98 97 101 99 99 101 0 0 0 0 0 0 0 0 0 0 0 0 0 0 0 0 0 0 0 0 0 0 0 0 0 0 0 0 0 0 0 0 0 0 0 0 0 0 0 0 0 0 0 0 0 0 0 0 0 0 0 0 0 0 0 0 0 0 0 0 0 0 0 0 0 0 0 0 0 0 0 0 0 0 0 0 0 0 0 0 0 0 0 0 0 0 0 0 0 0 0 0 0 0 0 0 0 0 0 0 0
0 0 0 0 0 0 0 0 0 0 0 0 0 0 0 0 0 0 0 0 0 0 0 0 0 0 0 0 0 0 0 0 0 0 0 0 0 0 0 0 0 0 0 52 58 7 7 75 81 85 89 93 91 90 92 89 91 95 97 89 89 78 94 93 92 92 75 93 89 89 83 82 87 87 87 84 83 82 83 84 84 85 84 92 92 93 86 84 86 88 86 85 83 84 84 84 84 84 85 85 85 85 85 85 83 82 83 82 82 84 84 84 86 92 87 88 84 84 90 90 87 89 86 90 88 86 84 84 84 85 87 89 89 86 85 86 87 87 85 85 90 91 89 89 90 90 87 86 87 88 87 86 86 86 86 86 86 86 86 86 86 88 88 86 86 85 86 86 85 86 89 91 90 92 93 92 92 92 93 94 88 92 91 86 85 87 88 88 87 89 92 85 86 86 88 88 90 91 96 95 92 89 89 89 92 93 95 97 96 99 97 98 98 97 89 87 87 86 99 104 102 105 104 99 95 94 89 88 100 104 102 104 102 101 101 104 101 98 101 102 100 98 98 99 100 100 100 96 99 101 103 106 106 106 105 106 109 109 107 105 105 105 104 103 102 107 105 108 106 105 104 103 99 104 107 106 105 103 106 106 105 104 102 99 99 97 97 97 98 100 97 95 95 97 95 98 97 97 98 97 99 100 98 98 97 96 99 98 99 98 96 97 97 97 99 97 97 97 97 98 99 101 101 102 103 100 0 0 0 0 0 0 0 0 0 0 0 0 0 0 0 0 0 0 0 0 0 0 0 0 0 0 0 0 0 0 0 0 0 0 0 0 0 0 0 0 0 0 0 0 0 0 0 0 0 0 0 0 0 0 0 0 0 0 0 0 0 0 0 0 0 0 0 0 0 0 0 0 0 0 0 0 0 0 0 0 0 0 0 0 0 0 0 0 0 0 0 0 0 0 0 0 0 0 0 0 0 0
0 0 0 0 0 0 0 0 0 0 0 0 0 0 0 0 0 0 0 0 0 0 0 0 0 0 0 0 0 0 0 0 0 0 0 0 0 0 0 0 0 0 0 0 0 0 0 0 0 83 87 90 92 94 92 90 86 93 88 88 91 95 92 93 89 87 100 98 84 83 85 85 89 87 87 86 86 84 83 83 84 85 90 91 92 84 85 87 86 87 87 85 86 85 85 85 84 84 85 85 85 85 85 85 85 87 86 84 84 84 84 84 87 87 89 89 86 87 87 87 86 84 86 85 87 88 86 86 85 84 84 85 87 86 87 88 87 86 85 85 86 90 90 89 89 89 90 89 88 86 86 86 86 86 86 86 85 86 86 86 90 91 91 91 92 91 86 86 85 86 86 91 90 92 94 91 87 87 87 88 87 87 86 85 87 88 88 87 87 87 91 86 85 85 87 87 94 97 96 95 96 95 89 88 92 91 92 96 97 95 97 96 96 95 92 87 87 87 87 98 103 104 102 97 96 95 91 89 106 106 105 105 104 101 100 102 100 99 98 99 100 96 95 95 96 97 95 100 99 98 101 105 105 105 102 104 107 108 106 105 107 106 105 104 102 105 105 106 106 107 105 103 106 104 103 109 107 108 103 104 101 106 102 99 98 98 97 97 99 98 97 97 98 98 96 96 97 99 100 100 97 99 99 97 96 97 97 100 100 98 98 97 98 97 98 99 98 99 100 101 102 101 102 100 102 102 0 0 0 0 0 0 0 0 0 0 0 0 0 0 0 0 0 0 0 0 0 0 0 0 0 0 0 0 0 0 0 0 0 0 0 0 0 0 0 0 0 0 0 0 0 0 0 0 0 0 0 0 0 0 0 0 0 0 0 0 0 0 0 0 0 0 0 0 0 0 0 0 0 0 0 0 0 0 0 0 0 0 0 0 0 0 0 0 0 0 0 0 0 0 0 0 0 0 0 0 0 0
0 0 0 0 0 0 0 0 0 0 0 0 0 0 0 0 0 0 0 0 0 0 0 0 0 0 0 0 0 0 0 0 0 0 0 0 0 0 0 0 0 0 0 0 0 0 0 0 0 0 84 87 91 93 94 92 92 91 90 91 86 90 90 89 86 88 79 85 86 82 81 83 82 88 87 88 87 88 87 84 90 90 91 92 83 84 85 87 87 87 88 86 91 90 85 85 84 84 84 85 85 86 85 85 85 85 87 88 85 84 88 87 85 85 87 85 89 89 89 84 85 84 84 84 91 90 89 88 85 85 86 90 87 85 89 87 86 85 85 85 85 86 90 90 87 87 90 90 89 85 86 86 86 86 86 86 86 87 92 93 94 94 94 94 93 91 88 86 86 87 86 85 87 93 94 88 87 87 87 87 86 86 86 87 88 88 87 88 88 87 89 86 86 87 87 87 94 96 96 94 98 96 92 88 90 90 90 95 95 94 95 97 97 93 90 87 87 87 87 87 103 105 102 102 101 99 98 95 94 105 104 103 100 101 104 101 101 101 97 96 99 94 94 98 97 94 97 99 101 99 98 103 107 105 103 104 108 106 94 93 105 105 105 104 105 103 105 105 106 104 106 102 103 101 104 105 107 104 102 101 104 103 102 100 99 100 98 97 99 97 97 98 97 98 98 98 97 99 99 99 98 98 98 99 98 98 97 100 100 98 99 97 97 97 98 99 102 100 101 101 102 103 104 103 101 0 0 0 0 0 0 0 0 0 0 0 0 0 0 0 0 0 0 0 0 0 0 0 0 0 0 0 0 0 0 0 0 0 0 0 0 0 0 0 0 0 0 0 0 0 0 0 0 0 0 0 0 0 0 0 0 0 0 0 0 0 0 0 0 0 0 0 0 0 0 0 0 0 0 0 0 0 0 0 0 0 0 0 0 0 0 0 0 0 0 0 0 0 0 0 0 0 0 0 0 0 0 0
0 0 0 0 0 0 0 0 0 0 0 0 0 0 0 0 0 0 0 0 0 0 0 0 0 0 0 0 0 0 0 0 0 0 0 0 0 0 0 0 0 0 0 0 0 0 0 0 0 0 82 85 88 91 95 91 89 79 67 73 98 91 89 73 85 83 80 93 86 82 82 81 82 85 88 88 88 88 89 89 90 90 90 81 82 83 84 87 88 86 88 87 88 88 86 85 84 84 84 84 84 84 85 85 85 84 86 88 86 84 88 85 85 84 86 88 88 88 85 84 85 84 84 84 91 90 88 89 90 86 88 90 90 87 86 85 85 85 85 85 85 85 85 88 90 89 88 89 85 85 88 88 86 86 86 86 86 86 86 93 95 95 96 95 93 91 88 85 86 86 85 85 87 93 93 88 87 87 87 87 86 86 86 87 88 89 89 89 88 88 90 86 86 87 87 92 92 94 94 94 96 95 94 87 90 90 89 95 99 95 98 95 96 95 92 87 88 88 87 88 87 100 101 102 103 102 102 97 94 99 103 101 99 98 98 100 99 97 97 97 98 99 100 103 101 99 100 100 102 101 101 107 110 107 108 105 106 105 93 92 92 105 106 105 106 104 102 103 107 105 104 102 99 102 103 102 101 101 103 105 103 102 98 98 97 95 95 94 93 94 95 95 96 97 96 96 95 98 98 98 97 97 96 96 96 96 95 97 97 97 96 96 96 96 98 99 100 98 98 99 100 102 102 101 0 0 0 0 0 0 0 0 0 0 0 0 0 0 0 0 0 0 0 0 0 0 0 0 0 0 0 0 0 0 0 0 0 0 0 0 0 0 0 0 0 0 0 0 0 0 0 0 0 0 0 0 0 0 0 0 0 0 0 0 0 0 0 0 0 0 0 0 0 0 0 0 0 0 0 0 0 0 0 0 0 0 0 0 0 0 0 0 0 0 0 0 0 0 0 0 0 0 0 0 0 0 0 0
0 0 0 0 0 0 0 0 0 0 0 0 0 0 0 0 0 0 0 0 0 0 0 0 0 0 0 0 0 0 0 0 0 0 0 0 0 0 0 0 0 0 0 0 0 0 0 0 0 0 0 83 86 89 94 94 89 73 68 91 94 99 89 84 92 92 92 72 77 80 81 82 82 82 83 87 89 89 89 90 90 90 83 83 83 82 83 86 85 88 87 87 85 84 86 86 85 88 85 84 84 83 83 84 85 85 85 86 88 87 86 84 84 84 85 84 85 90 85 85 84 86 90 85 84 89 90 91 89 87 85 88 88 90 88 87 85 85 85 85 85 85 85 85 89 90 88 85 88 86 85 88 88 86 86 86 88 86 92 93 94 94 93 93 93 91 89 88 87 86 85 85 85 86 91 88 86 87 88 87 86 86 86 88 87 87 87 88 88 90 87 85 86 86 92 95 94 94 95 94 95 95 92 89 88 89 88 94 98 97 98 98 96 97 95 89 89 91 91 93 93 97 101 102 106 105 105 101 99 103 105 104 103 99 97 98 98 95 97 97 97 96 97 100 102 103 98 99 99 97 100 105 108 107 109 105 103 100 91 90 91 92 104 105 104 104 104 104 106 105 103 102 103 103 101 102 99 99 103 100 99 97 97 97 94 96 96 93 94 94 95 94 94 95 98 97 96 97 98 98 97 97 97 99 97 96 96 96 98 97 95 96 96 95 96 99 101 98 103 102 101 103 103 100 0 0 0 0 0 0 0 0 0 0 0 0 0 0 0 0 0 0 0 0 0 0 0 0 0 0 0 0 0 0 0 0 0 0 0 0 0 0 0 0 0 0 0 0 0 0 0 0 0 0 0 0 0 0 0 0 0 0 0 0 0 0 0 0 0 0 0 0 0 0 0 0 0 0 0 0 0 0 0 0 0 0 0 0 0 0 0 0 0 0 0 0 0 0 0 0 0 0 0 0 0 0 0 0
0 0 0 0 0 0 0 0 0 0 0 0 0 0 0 0 0 0 0 0 0 0 0 0 0 0 0 0 0 0 0 0 0 0 0 0 0 0 0 0 0 0 0 0 0 0 0 0 0 0 0 0 84 86 88 88 70 95 73 95 87 69 89 88 91 72 66 61 87 87 81 84 84 82 82 83 83 85 85 85 84 83 83 84 81 82 83 86 84 85 90 89 87 89 87 85 86 90 89 85 84 84 84 83 84 85 86 85 84 86 88 87 87 84 85 85 90 91 90 84 87 89 90 84 84 84 90 91 89 87 86 89 90 90 88 89 87 85 85 85 85 85 85 85 85 89 85 88 88 89 87 85 88 86 86 89 87 91 93 92 92 91 90 90 87 89 85 90 87 86 86 85 85 85 86 91 92 91 87 87 85 85 87 87 86 86 86 87 89 91 87 86 86 86 94 93 95 95 95 97 94 94 93 92 87 89 88 92 94 98 98 98 97 97 96 90 89 89 91 101 107 107 105 102 106 106 106 105 104 103 100 104 102 101 102 100 99 99 96 97 96 97 98 100 100 102 100 98 101 95 98 104 107 110 110 110 90 103 91 91 91 91 101 103 103 102 101 99 103 101 100 99 102 100 98 98 97 99 103 102 99 98 95 95 94 95 94 95 95 94 96 95 97 97 98 97 96 95 96 97 96 96 97 98 97 98 97 97 96 96 94 95 94 96 96 99 100 101 103 102 100 103 102 0 0 0 0 0 0 0 0 0 0 0 0 0 0 0 0 0 0 0 0 0 0 0 0 0 0 0 0 0 0 0 0 0 0 0 0 0 0 0 0 0 0 0 0 0 0 0 0 0 0 0 0 0 0 0 0 0 0 0 0 0 0 0 0 0 0 0 0 0 0 0 0 0 0 0 0 0 0 0 0 0 0 0 0 0 0 0 0 0 0 0 0 0 0 0 0 0 0 0 0 0 0 0 0 0
0 0 0 0 0 0 0 0 0 0 0 0 0 0 0 0 0 0 0 0 0 0 0 0 0 0 0 0 0 0 0 0 0 0 0 0 0 0 0 0 0 0 0 0 0 0 0 0 0 0 0 0 82 83 85 90 100 100 88 94 93 83 71 69 68 75 73 63 77 70 64 65 80 84 82 83 83 83 83 83 83 84 85 85 85 85 83 85 85 84 87 86 89 88 87 85 87 88 85 84 84 84 84 84 84 84 87 88 85 85 85 87 86 87 84 85 90 89 87 88 89 89 84 84 86 84 85 85 87 86 90 90 90 87 88 91 89 85 85 85 85 85 85 85 85 85 88 88 89 88 88 86 85 88 86 86 86 94 92 94 94 95 95 95 96 96 94 85 85 85 86 85 85 85 86 89 93 93 91 86 85 85 87 88 87 86 86 86 88 87 87 86 86 95 94 93 96 87 86 93 94 92 93 92 87 90 88 90 96 96 96 100 96 95 98 93 95 102 105 105 105 105 107 106 102 104 106 106 105 104 102 100 103 104 103 99 96 100 96 95 99 98 97 98 98 97 98 98 101 95 99 99 104 109 110 110 104 105 97 89 90 90 102 102 101 102 100 105 106 101 102 100 97 96 97 96 97 99 102 100 97 95 96 96 97 96 95 94 94 95 96 95 97 96 98 97 96 95 95 96 97 98 96 96 96 97 97 95 96 97 95 97 97 97 97 97 99 103 105 102 100 102 0 0 0 0 0 0 0 0 0 0 0 0 0 0 0 0 0 0 0 0 0 0 0 0 0 0 0 0 0 0 0 0 0 0 0 0 0 0 0 0 0 0 0 0 0 0 0 0 0 0 0 0 0 0 0 0 0 0 0 0 0 0 0 0 0 0 0 0 0 0 0 0 0 0 0 0 0 0 0 0 0 0 0 0 0 0 0 0 0 0 0 0 0 0 0 0 0 0 0 0 0 0 0 0 0 0
0 0 0 0 0 0 0 0 0 0 0 0 0 0 0 0 0 0 0 0 0 0 0 0 0 0 0 0 0 0 0 0 0 0 0 0 0 0 0 0 0 0 0 0 0 0 0 0 0 0 0 0 0 81 83 86 92 88 74 93 90 69 72 70 60 73 87 99 69 76 77 79 89 84 84 84 83 83 84 84 83 84 84 85 86 84 83 84 87 85 84 85 86 85 84 86 84 85 84 84 87 87 87 84 84 84 86 89 87 86 85 84 86 87 86 87 87 84 86 89 87 84 85 88 88 85 84 86 86 90 91 90 87 89 87 88 85 86 88 87 85 85 85 85 85 88 88 89 88 88 87 85 85 85 86 84 86 96 97 97 97 97 97 97 97 97 95 85 86 85 86 85 86 85 85 89 91 89 87 85 85 87 86 88 89 87 87 87 88 86 87 87 98 96 95 96 98 87 87 87 86 94 94 93 88 92 88 89 94 94 95 97 94 96 96 95 96 105 106 105 105 105 110 108 105 103 102 109 107 106 103 100 99 102 102 100 99 98 100 97 101 101 100 97 97 96 97 97 99 100 100 96 101 106 106 107 105 106 101 91 99 98 102 105 104 103 99 102 102 102 98 100 96 96 96 96 95 98 99 99 96 100 98 97 96 94 96 99 96 96 94 95 96 97 97 96 96 94 96 97 96 97 97 96 95 96 97 95 96 97 96 96 97 97 98 97 98 105 109 104 102 102 0 0 0 0 0 0 0 0 0 0 0 0 0 0 0 0 0 0 0 0 0 0 0 0 0 0 0 0 0 0 0 0 0 0 0 0 0 0 0 0 0 0 0 0 0 0 0 0 0 0 0 0 0 0 0 0 0 0 0 0 0 0 0 0 0 0 0 0 0 0 0 0 0 0 0 0 0 0 0 0 0 0 0 0 0 0 0 0 0 0 0 0 0 0 0 0 0 0 0 0 0 0 0 0 0 0
0 0 0 0 0 0 0 0 0 0 0 0 0 0 0 0 0 0 0 0 0 0 0 0 0 0 0 0 0 0 0 0 0 0 0 0 0 0 0 0 0 0 0 0 0 0 0 0 0 0 0 77 78 78 80 84 90 87 75 82 82 69 75 91 77 84 84 87 79 81 80 83 77 84 83 84 83 84 84 84 83 82 85 83 81 82 83 83 84 85 86 90 89 85 86 84 84 85 84 86 86 85 85 87 86 84 84 86 90 87 86 85 85 84 88 90 91 84 84 84 84 85 87 88 88 88 84 86 88 90 87 90 90 87 88 86 86 88 89 89 89 85 85 85 85 86 88 88 88 87 86 85 85 85 88 84 85 97 97 96 96 96 97 95 97 95 95 86 86 85 86 85 85 85 85 87 88 86 85 85 86 87 88 87 87 88 87 87 88 87 88 87 99 96 97 97 94 86 87 91 91 91 94 95 87 93 88 88 94 95 95 96 100 95 96 97 101 104 103 104 104 107 111 111 109 103 106 107 108 107 104 104 101 102 100 98 97 98 100 99 100 102 100 99 101 100 98 98 97 97 96 96 99 101 105 108 109 110 108 106 109 107 108 108 106 100 100 104 102 100 96 96 95 97 95 97 96 97 96 97 96 98 98 99 97 97 98 100 98 96 97 96 98 99 97 96 97 95 96 96 94 94 97 98 96 96 97 96 97 98 98 98 99 98 98 97 99 107 108 106 104 0 0 0 0 0 0 0 0 0 0 0 0 0 0 0 0 0 0 0 0 0 0 0 0 0 0 0 0 0 0 0 0 0 0 0 0 0 0 0 0 0 0 0 0 0 0 0 0 0 0 0 0 0 0 0 0 0 0 0 0 0 0 0 0 0 0 0 0 0 0 0 0 0 0 0 0 0 0 0 0 0 0 0 0 0 0 0 0 0 0 0 0 0 0 0 0 0 0 0 0 0 0 0 0 0 0 0
0 0 0 0 0 0 0 0 0 0 0 0 0 0 0 0 0 0 0 0 0 0 0 0 0 0 0 0 0 0 0 0 0 0 0 0 0 0 0 0 0 0 0 0 0 0 0 0 63 75 76 76 76 76 78 83 91 93 90 91 93 84 62 70 99 100 101 81 70 83 82 82 87 83 82 82 85 84 84 84 84 83 81 74 81 80 82 82 83 84 84 90 91 89 84 84 84 84 83 83 84 84 84 85 86 85 84 84 84 85 84 86 85 84 85 89 90 85 84 84 89 92 92 88 88 85 88 88 84 85 91 91 90 91 89 88 90 86 87 91 90 86 85 85 85 85 89 90 88 88 90 85 85 87 85 84 84 92 85 85 85 95 97 95 86 92 89 85 89 85 86 85 85 85 86 86 87 85 85 85 86 90 90 90 87 87 87 87 87 87 87 87 87 95 101 101 98 87 87 89 91 96 95 88 89 93 88 89 93 96 98 96 97 94 96 99 103 105 108 106 104 106 108 106 106 104 103 105 107 109 106 102 100 98 101 99 97 99 101 101 101 103 101 100 101 101 100 98 97 98 97 99 95 100 103 108 110 109 108 106 107 109 108 106 105 108 107 105 101 99 94 93 93 95 97 96 97 96 95 96 96 99 97 100 98 99 97 96 96 96 97 97 98 98 97 97 97 96 96 97 95 94 99 98 96 97 97 96 97 100 101 102 100 101 99 98 98 105 107 106 0 0 0 0 0 0 0 0 0 0 0 0 0 0 0 0 0 0 0 0 0 0 0 0 0 0 0 0 0 0 0 0 0 0 0 0 0 0 0 0 0 0 0 0 0 0 0 0 0 0 0 0 0 0 0 0 0 0 0 0 0 0 0 0 0 0 0 0 0 0 0 0 0 0 0 0 0 0 0 0 0 0 0 0 0 0 0 0 0 0 0 0 0 0 0 0 0 0 0 0 0 0 0 0 0 0 0 0
0 0 0 0 0 0 0 0 0 0 0 0 0 0 0 0 0 0 0 0 0 0 0 0 0 0 0 0 0 0 0 0 0 0 0 0 0 0 0 0 0 0 0 0 0 0 72 73 74 75 76 75 75 74 74 77 83 84 88 88 89 90 64 72 94 75 82 66 61 83 83 81 86 84 83 79 85 82 81 83 85 66 82 79 82 82 84 83 83 84 84 85 89 83 84 84 85 84 84 84 84 85 84 84 85 84 85 84 84 84 84 84 87 87 84 90 90 85 84 86 91 93 89 87 85 87 91 89 85 84 91 86 90 90 89 88 90 89 86 86 86 90 85 85 85 89 91 90 90 92 91 86 88 85 85 84 84 85 85 85 85 95 97 97 86 91 91 85 86 85 87 86 85 85 85 86 86 84 84 86 88 91 89 88 87 88 87 87 87 87 87 87 86 89 100 101 98 90 89 93 95 95 95 87 89 93 88 88 94 95 97 96 97 96 97 101 103 106 110 110 107 108 110 109 108 105 103 108 106 106 104 102 102 102 101 98 97 97 96 99 101 101 100 100 101 100 101 99 101 99 101 100 98 99 104 109 110 112 110 107 108 109 106 106 106 107 107 106 102 99 95 94 95 95 95 93 93 93 92 92 94 95 94 98 94 93 94 95 93 92 94 94 95 96 96 95 95 95 95 95 93 92 96 94 94 94 94 94 96 101 102 101 98 97 96 96 95 100 104 34 0 0 0 0 0 0 0 0 0 0 0 0 0 0 0 0 0 0 0 0 0 0 0 0 0 0 0 0 0 0 0 0 0 0 0 0 0 0 0 0 0 0 0 0 0 0 0 0 0 0 0 0 0 0 0 0 0 0 0 0 0 0 0 0 0 0 0 0 0 0 0 0 0 0 0 0 0 0 0 0 0 0 0 0 0 0 0 0 0 0 0 0 0 0 0 0 0 0 0 0 0 0 0 0 0 0 0 0
0 0 0 0 0 0 0 0 0 0 0 0 0 0 0 0 0 0 0 0 0 0 0 0 0 0 0 0 0 0 0 0 0 0 0 0 0 0 0 0 0 0 0 0 0 0 0 74 75 75 76 75 74 73 72 74 75 80 85 86 84 84 84 86 64 86 91 63 61 85 84 80 82 85 82 86 81 82 83 82 83 83 80 81 82 83 83 83 82 84 84 83 84 85 85 85 84 85 84 84 85 85 84 83 84 84 85 85 84 85 84 88 87 88 89 85 85 86 84 84 89 89 91 90 90 90 87 89 88 86 85 85 85 90 90 88 88 90 86 87 90 91 86 85 87 90 90 91 92 90 87 87 85 85 84 84 84 85 84 85 84 95 97 96 85 88 88 85 86 85 85 86 85 85 86 85 86 84 86 88 90 89 89 87 88 89 87 87 89 89 90 88 90 89 94 101 100 93 89 88 89 89 89 91 92 93 88 89 95 94 92 92 92 94 99 98 99 107 105 105 105 107 107 105 108 103 101 102 105 98 99 101 100 101 101 102 99 99 101 100 100 100 102 103 101 101 102 102 100 101 101 96 95 97 102 104 108 109 110 107 108 109 107 107 106 105 107 105 104 98 97 97 95 96 95 94 93 93 93 92 93 95 95 96 94 94 95 96 95 94 94 94 96 95 95 96 95 96 95 95 93 94 93 94 94 96 96 96 98 104 106 105 104 104 101 97 96 98 101 0 0 0 0 0 0 0 0 0 0 0 0 0 0 0 0 0 0 0 0 0 0 0 0 0 0 0 0 0 0 0 0 0 0 0 0 0 0 0 0 0 0 0 0 0 0 0 0 0 0 0 0 0 0 0 0 0 0 0 0 0 0 0 0 0 0 0 0 0 0 0 0 0 0 0 0 0 0 0 0 0 0 0 0 0 0 0 0 0 0 0 0 0 0 0 0 0 0 0 0 0 0 0 0 0 0 0 0 0
0 0 0 0 0 0 0 0 0 0 0 0 0 0 0 0 0 0 0 0 0 0 0 0 0 0 0 0 0 0 0 0 0 0 0 0 0 0 0 0 0 0 0 0 0 0 0 0 75 76 76 75 74 73 73 73 76 82 82 82 82 74 84 89 76 97 67 65 81 65 83 82 88 87 84 86 79 84 83 80 82 81 81 82 82 83 83 83 84 84 85 83 83 88 86 85 86 86 85 85 84 85 85 85 84 81 84 84 84 84 84 84 88 86 88 87 85 85 86 85 87 88 88 89 90 88 89 90 88 90 85 85 87 87 91 89 85 85 87 88 89 87 86 85 91 91 91 86 88 85 87 86 85 84 84 84 84 84 84 84 84 85 97 96 97 96 96 95 85 86 88 91 90 85 85 85 84 85 86 89 89 87 87 87 91 89 90 88 91 90 91 90 89 90 90 98 100 97 96 93 93 94 92 93 92 92 88 89 92 91 92 92 93 96 101 99 98 108 108 107 105 105 106 104 103 102 102 104 99 98 98 100 101 102 103 101 100 101 103 102 103 104 104 102 103 103 102 101 99 101 97 100 98 98 99 102 104 107 110 110 108 108 107 108 105 106 109 107 108 105 104 98 94 92 96 92 95 95 92 92 92 97 95 96 96 96 95 95 94 95 94 93 96 97 96 96 97 97 96 96 94 95 93 95 95 99 101 99 105 108 108 105 102 102 101 98 96 95 0 0 0 0 0 0 0 0 0 0 0 0 0 0 0 0 0 0 0 0 0 0 0 0 0 0 0 0 0 0 0 0 0 0 0 0 0 0 0 0 0 0 0 0 0 0 0 0 0 0 0 0 0 0 0 0 0 0 0 0 0 0 0 0 0 0 0 0 0 0 0 0 0 0 0 0 0 0 0 0 0 0 0 0 0 0 0 0 0 0 0 0 0 0 0 0 0 0 0 0 0 0 0 0 0 0 0 0 0 0
0 0 0 0 0 0 0 0 0 0 0 0 0 0 0 0 0 0 0 0 0 0 0 0 0 0 0 0 0 0 0 0 0 0 0 0 0 0 0 0 0 0 0 0 0 0 0 0 12 76 76 75 75 74 74 75 77 81 84 83 80 84 80 71 75 72 76 85 78 78 84 81 86 85 66 84 82 75 81 81 79 83 82 83 82 81 84 84 84 83 85 84 84 84 84 86 87 88 86 86 83 84 83 81 81 84 84 84 84 84 84 84 84 85 85 88 86 85 85 88 86 87 87 87 86 84 87 89 90 90 87 86 88 87 88 86 85 87 88 88 88 87 88 87 85 91 92 91 85 86 85 86 84 84 84 84 84 84 84 84 84 84 97 97 97 97 96 95 86 86 87 89 88 86 85 84 86 86 85 86 86 86 87 89 90 90 89 87 87 87 88 87 88 89 88 90 99 98 98 98 99 98 99 99 96 92 88 89 92 93 92 91 92 97 98 96 98 100 104 110 105 105 106 104 102 102 101 104 102 100 98 100 100 103 104 103 101 100 104 102 104 106 104 104 102 103 103 103 101 101 101 98 97 95 96 97 99 105 109 109 110 110 106 106 104 107 110 108 109 110 104 97 97 98 94 93 92 92 93 93 92 94 94 93 96 97 97 95 95 97 95 94 97 97 96 95 95 96 95 95 96 96 97 98 97 99 101 103 106 110 106 104 102 101 101 98 95 0 0 0 0 0 0 0 0 0 0 0 0 0 0 0 0 0 0 0 0 0 0 0 0 0 0 0 0 0 0 0 0 0 0 0 0 0 0 0 0 0 0 0 0 0 0 0 0 0 0 0 0 0 0 0 0 0 0 0 0 0 0 0 0 0 0 0 0 0 0 0 0 0 0 0 0 0 0 0 0 0 0 0 0 0 0 0 0 0 0 0 0 0 0 0 0 0 0 0 0 0 0 0 0 0 0 0 0 0 0 0
0 0 0 0 0 0 0 0 0 0 0 0 0 0 0 0 0 0 0 0 0 0 0 0 0 0 0 0 0 0 0 0 0 0 0 0 0 0 0 0 0 0 0 0 0 0 0 0 0 76 76 76 75 75 75 76 78 79 77 82 82 83 83 78 73 73 83 90 83 86 81 80 86 81 80 83 81 84 75 81 77 83 82 83 83 83 84 83 83 84 83 84 84 84 85 83 85 85 84 84 85 84 85 86 85 88 89 85 84 84 84 84 84 84 84 86 85 85 85 86 86 86 87 86 84 85 84 92 89 90 89 89 87 87 86 85 85 88 88 87 87 88 91 90 85 86 90 86 85 86 85 84 84 84 84 84 84 84 84 84 84 84 95 95 88 88 89 87 86 86 85 86 86 85 85 85 89 88 85 91 90 88 90 88 89 91 88 88 86 88 88 87 88 87 88 87 93 97 98 98 98 99 98 98 95 91 88 88 93 94 92 92 91 97 104 95 96 100 101 102 101 102 101 100 100 101 101 102 99 102 92 96 98 105 102 102 104 106 104 102 103 103 104 107 107 106 104 104 103 101 101 100 98 98 98 98 97 99 104 105 107 109 109 104 104 109 108 108 107 108 106 102 103 100 96 92 94 93 93 93 93 92 95 93 93 96 96 98 98 97 96 99 98 96 95 97 96 98 95 97 97 96 97 98 95 101 105 102 105 107 105 0 0 100 0 0 0 0 0 0 0 0 0 0 0 0 0 0 0 0 0 0 0 0 0 0 0 0 0 0 0 0 0 0 0 0 0 0 0 0 0 0 0 0 0 0 0 0 0 0 0 0 0 0 0 0 0 0 0 0 0 0 0 0 0 0 0 0 0 0 0 0 0 0 0 0 0 0 0 0 0 0 0 0 0 0 0 0 0 0 0 0 0 0 0 0 0 0 0 0 0 0 0 0 0 0 0 0 0 0 0 0 0 0 0 0 0 0
0 0 0 0 0 0 0 0 0 0 0 0 0 0 0 0 0 0 0 0 0 0 0 0 0 0 0 0 0 0 0 0 0 0 0 0 0 0 0 0 0 0 0 0 0 0 0 0 0 0 77 76 76 76 77 78 79 79 81 82 82 82 80 77 66 88 76 72 84 84 83 67 81 81 81 83 83 79 76 82 82 82 84 89 84 85 84 84 84 83 81 82 82 83 83 85 83 84 84 84 86 87 85 86 88 90 90 85 83 84 84 84 84 84 84 84 84 86 85 85 86 86 90 85 85 84 84 84 90 90 92 90 86 85 87 88 88 86 88 86 89 87 87 87 85 84 85 85 86 85 84 84 84 84 84 84 84 84 84 84 84 84 85 85 85 85 85 86 89 85 85 87 86 85 85 87 88 86 86 87 92 86 89 90 87 87 87 87 87 88 89 91 90 87 86 86 86 95 98 98 98 97 100 99 95 91 88 88 91 95 90 91 92 94 103 99 95 96 99 101 102 102 99 102 99 101 100 102 100 102 93 96 98 102 100 102 109 110 106 107 105 104 106 107 108 107 105 104 105 104 104 100 99 98 97 98 97 99 108 108 103 108 110 111 109 107 106 105 106 108 108 104 106 104 101 96 98 95 96 94 95 93 94 93 93 93 96 98 99 98 96 100 100 96 96 98 97 98 97 96 96 96 104 100 100 101 100 102 103 104 0 0 0 0 0 0 0 0 0 0 0 0 0 0 0 0 0 0 0 0 0 0 0 0 0 0 0 0 0 0 0 0 0 0 0 0 0 0 0 0 0 0 0 0 0 0 0 0 0 0 0 0 0 0 0 0 0 0 0 0 0 0 0 0 0 0 0 0 0 0 0 0 0 0 0 0 0 0 0 0 0 0 0 0 0 0 0 0 0 0 0 0 0 0 0 0 0 0 0 0 0 0 0 0 0 0 0 0 0 0 0 0 0 0 0 0 0 0
0 0 0 0 0 0 0 0 0 0 0 0 0 0 0 0 0 0 0 0 0 0 0 0 0 0 0 0 0 0 0 0 0 0 0 0 0 0 0 0 0 0 0 0 0 0 0 0 0 0 0 77 77 77 78 79 80 80 81 83 86 84 82 84 81 81 80 82 70 79 80 81 82 79 92 79 82 81 73 82 82 81 85 77 83 83 82 83 83 84 82 82 83 83 83 83 83 83 84 83 89 87 85 83 88 87 85 86 85 84 84 90 89 84 84 84 88 85 86 85 85 87 91 84 85 84 85 90 90 90 90 88 85 86 89 91 89 87 87 90 90 86 86 86 87 87 85 88 85 85 84 84 84 84 84 84 84 84 84 84 84 84 84 84 85 89 86 95 95 85 85 86 85 84 85 92 91 86 89 89 87 85 87 87 86 86 86 87 86 86 86 89 90 86 88 87 84 84 96 97 98 96 97 98 97 94 88 88 89 90 90 91 90 92 96 97 100 99 104 105 104 104 102 103 102 102 101 101 101 103 97 92 101 102 104 105 110 110 111 112 110 107 108 106 109 107 108 107 106 105 105 104 103 102 100 98 96 96 101 104 105 108 110 111 110 108 103 98 90 92 95 102 99 102 97 92 95 91 92 92 92 91 91 92 92 94 94 96 97 97 96 98 96 96 96 96 96 94 95 93 94 102 103 100 100 99 98 99 102 0 0 0 0 0 0 0 0 0 0 0 0 0 0 0 0 0 0 0 0 0 0 0 0 0 0 0 0 0 0 0 0 0 0 0 0 0 0 0 0 0 0 0 0 0 0 0 0 0 0 0 0 0 0 0 0 0 0 0 0 0 0 0 0 0 0 0 0 0 0 0 0 0 0 0 0 0 0 0 0 0 0 0 0 0 0 0 0 0 0 0 0 0 0 0 0 0 0 0 0 0 0 0 0 0 0 0 0 0 0 0 0 0 0 0 0 0 0 0
0 0 0 0 0 0 0 0 0 0 0 0 0 0 0 0 0 0 0 0 0 0 0 0 0 0 0 0 0 0 0 0 0 0 0 0 0 0 0 0 0 0 0 0 0 0 0 0 0 0 0 78 78 78 78 79 80 81 82 82 84 83 82 81 83 83 91 83 82 83 82 81 85 82 80 83 84 82 83 82 80 83 77 80 84 82 82 84 84 83 83 84 85 85 85 84 84 84 84 90 93 90 87 84 84 85 87 86 87 84 85 84 90 85 84 84 87 84 86 86 85 85 87 91 85 85 88 92 91 91 86 85 85 85 88 87 87 88 89 89 87 85 85 87 89 87 84 86 88 85 84 84 84 84 84 84 84 84 84 84 84 84 85 85 85 90 95 95 88 85 86 86 84 85 90 88 85 85 88 88 90 87 88 86 87 87 86 86 87 86 86 87 86 87 87 88 87 86 89 95 97 98 99 99 97 95 90 88 89 93 91 91 91 93 97 101 99 100 101 106 102 102 102 101 101 100 100 101 101 101 98 91 100 105 105 108 108 109 111 112 110 111 108 107 107 106 109 106 106 105 104 103 105 105 101 97 101 99 99 99 102 105 106 108 110 112 111 92 91 91 91 105 102 102 97 95 94 93 95 93 93 95 93 92 92 94 95 97 98 98 98 98 97 95 97 97 96 96 93 92 97 101 99 97 97 97 95 96 99 0 0 0 0 0 0 0 0 0 0 0 0 0 0 0 0 0 0 0 0 0 0 0 0 0 0 0 0 0 0 0 0 0 0 0 0 0 0 0 0 0 0 0 0 0 0 0 0 0 0 0 0 0 0 0 0 0 0 0 0 0 0 0 0 0 0 0 0 0 0 0 0 0 0 0 0 0 0 0 0 0 0 0 0 0 0 0 0 0 0 0 0 0 0 0 0 0 0 0 0 0 0 0 0 0 0 0 0 0 0 0 0 0 0 0 0 0 0 0
0 0 0 0 0 0 0 0 0 0 0 0 0 0 0 0 0 0 0 0 0 0 0 0 0 0 0 0 0 0 0 0 0 0 0 0 0 0 0 0 0 0 0 0 0 0 0 0 0 0 0 0 78 79 79 79 80 81 82 81 80 85 86 90 84 93 83 91 81 83 85 95 95 83 83 84 83 84 83 82 84 83 85 84 81 78 85 85 84 83 84 84 85 85 86 86 84 84 84 85 91 90 86 87 86 87 86 86 84 85 84 86 89 90 85 84 84 84 85 86 86 85 86 87 88 86 86 88 86 85 85 85 85 85 84 87 88 90 89 89 87 85 85 89 87 86 86 85 86 87 84 84 84 84 84 84 84 84 84 84 84 85 85 85 95 96 95 94 88 85 86 86 85 89 91 91 87 87 89 89 88 87 87 87 87 87 87 87 87 86 86 87 87 90 90 89 87 89 96 94 96 101 101 103 101 96 92 88 89 94 93 90 90 93 96 98 100 99 101 104 101 100 98 99 100 100 100 100 102 104 99 93 100 103 104 105 105 107 109 109 108 109 107 107 108 107 106 106 108 105 104 105 105 107 105 102 99 99 101 100 98 101 105 109 111 111 111 108 95 89 89 93 99 99 101 98 97 96 94 95 95 95 96 92 94 95 95 97 98 99 97 99 98 97 99 98 96 97 94 101 94 99 99 96 96 95 94 96 96 0 0 0 0 0 0 0 0 0 0 0 0 0 0 0 0 0 0 0 0 0 0 0 0 0 0 0 0 0 0 0 0 0 0 0 0 0 0 0 0 0 0 0 0 0 0 0 0 0 0 0 0 0 0 0 0 0 0 0 0 0 0 0 0 0 0 0 0 0 0 0 0 0 0 0 0 0 0 0 0 0 0 0 0 0 0 0 0 0 0 0 0 0 0 0 0 0 0 0 0 0 0 0 0 0 0 0 0 0 0 0 0 0 0 0 0 0 0 0
0 0 0 0 0 0 0 0 0 0 0 0 0 0 0 0 0 0 0 0 0 0 0 0 0 0 0 0 0 0 0 0 0 0 0 0 0 0 0 0 0 0 0 0 0 0 0 0 0 0 0 0 0 79 79 79 79 80 81 79 82 83 88 86 92 80 71 81 80 95 83 90 84 81 82 83 82 84 80 82 83 84 83 85 84 82 79 84 84 84 83 84 84 86 86 86 83 83 83 83 88 91 88 86 87 85 85 84 84 84 84 87 88 87 87 85 84 84 90 86 85 86 85 85 87 86 89 87 85 87 88 86 84 85 89 88 88 88 89 90 86 87 86 87 86 88 87 87 85 88 85 84 84 84 84 84 84 84 84 84 85 86 85 94 96 97 97 93 85 85 86 84 86 89 87 88 86 87 91 88 88 87 87 87 87 87 87 87 88 87 87 98 97 97 94 92 88 88 95 98 99 101 104 102 100 95 93 88 89 95 95 91 93 95 99 102 101 98 100 100 100 101 100 97 98 98 99 101 101 102 102 96 99 105 104 102 105 107 106 107 106 105 107 105 107 106 105 106 106 107 106 104 105 107 105 103 104 107 104 104 101 100 101 103 105 107 110 110 101 89 90 89 90 93 103 103 99 95 94 96 96 97 96 95 94 97 96 98 97 97 96 98 98 100 99 99 96 98 94 99 99 100 101 100 98 94 0 0 0 0 0 0 0 0 0 0 0 0 0 0 0 0 0 0 0 0 0 0 0 0 0 0 0 0 0 0 0 0 0 0 0 0 0 0 0 0 0 0 0 0 0 0 0 0 0 0 0 0 0 0 0 0 0 0 0 0 0 0 0 0 0 0 0 0 0 0 0 0 0 0 0 0 0 0 0 0 0 0 0 0 0 0 0 0 0 0 0 0 0 0 0 0 0 0 0 0 0 0 0 0 0 0 0 0 0 0 0 0 0 0 0 0 0 0 0 0 0 0
0 0 0 0 0 0 0 0 0 0 0 0 0 0 0 0 0 0 0 0 0 0 0 0 0 0 0 0 0 0 0 0 0 0 0 0 0 0 0 0 0 0 0 0 0 0 0 0 0 0 0 0 0 79 79 79 79 79 81 81 83 83 82 86 92 94 84 80 94 78 81 84 96 97 79 81 83 82 82 82 83 84 84 78 81 80 83 83 83 84 85 86 86 86 85 83 84 94 84 83 85 85 88 92 85 84 84 84 84 84 87 88 89 88 87 86 84 84 90 90 85 86 86 85 86 87 86 86 85 86 89 86 84 87 91 89 88 86 85 86 88 90 91 87 88 89 86 88 86 90 89 84 84 84 84 84 84 84 85 85 85 85 86 95 95 94 95 86 85 85 85 86 90 91 85 85 88 90 86 86 87 87 87 87 87 87 87 87 87 97 96 97 93 96 95 91 90 90 91 96 97 105 105 102 99 97 94 88 89 89 95 94 93 97 97 101 99 97 98 100 98 100 101 100 99 100 101 101 103 101 103 97 101 105 103 106 105 106 104 105 104 107 106 104 104 104 106 105 107 106 105 105 107 106 104 106 103 104 104 102 102 101 99 99 100 106 109 109 107 99 91 91 92 91 91 98 98 97 97 97 98 97 97 97 98 98 99 99 97 96 97 100 101 100 99 97 98 97 93 97 100 99 59 99 0 0 0 0 0 0 0 0 0 0 0 0 0 0 0 0 0 0 0 0 0 0 0 0 0 0 0 0 0 0 0 0 0 0 0 0 0 0 0 0 0 0 0 0 0 0 0 0 0 0 0 0 0 0 0 0 0 0 0 0 0 0 0 0 0 0 0 0 0 0 0 0 0 0 0 0 0 0 0 0 0 0 0 0 0 0 0 0 0 0 0 0 0 0 0 0 0 0 0 0 0 0 0 0 0 0 0 0 0 0 0 0 0 0 0 0 0 0 0 0 0 0 0 0
0 0 0 0 0 0 0 0 0 0 0 0 0 0 0 0 0 0 0 0 0 0 0 0 0 0 0 0 0 0 0 0 0 0 0 0 0 0 0 0 0 0 0 0 0 0 0 0 0 0 0 0 0 0 79 79 79 78 77 77 78 85 88 92 97 86 83 86 78 80 78 89 93 84 84 90 82 83 85 85 84 83 84 81 84 81 82 83 85 86 86 84 88 87 91 83 94 95 95 84 83 85 91 91 91 84 84 84 84 84 87 89 90 89 87 85 86 85 84 91 88 86 86 85 85 86 90 86 86 85 87 85 85 88 91 88 88 85 87 88 89 90 88 87 88 86 84 84 85 87 89 84 84 85 84 85 85 85 85 87 89 87 88 90 88 86 84 84 85 84 86 89 89 89 87 86 90 86 86 86 87 87 87 87 87 87 87 87 89 97 96 91 96 96 96 94 92 91 99 99 102 105 105 102 101 99 96 88 89 89 95 93 91 93 95 91 90 96 96 98 97 100 99 100 101 100 101 101 102 102 103 100 99 104 102 102 106 105 105 104 103 107 106 104 105 104 104 105 107 107 104 106 108 106 104 106 104 104 102 106 105 101 101 101 101 104 107 105 110 109 106 93 92 91 91 91 91 91 97 96 97 99 98 97 98 99 101 99 99 98 99 98 101 99 98 97 98 96 93 101 99 0 0 0 0 0 0 0 0 0 0 0 0 0 0 0 0 0 0 0 0 0 0 0 0 0 0 0 0 0 0 0 0 0 0 0 0 0 0 0 0 0 0 0 0 0 0 0 0 0 0 0 0 0 0 0 0 0 0 0 0 0 0 0 0 0 0 0 0 0 0 0 0 0 0 0 0 0 0 0 0 0 0 0 0 0 0 0 0 0 0 0 0 0 0 0 0 0 0 0 0 0 0 0 0 0 0 0 0 0 0 0 0 0 0 0 0 0 0 0 0 0 0 0 0 0 0 0
0 0 0 0 0 0 0 0 0 0 0 0 0 0 0 0 0 0 0 0 0 0 0 0 0 0 0 0 0 0 0 0 0 0 0 0 0 0 0 0 0 0 0 0 0 0 0 0 0 0 0 0 0 0 0 79 79 78 76 75 78 88 82 84 93 92 82 92 82 81 82 81 94 83 95 83 83 84 83 84 83 84 83 84 83 82 82 85 86 84 83 83 89 90 92 84 95 95 95 84 84 83 84 92 91 91 84 84 84 87 88 87 89 89 88 85 87 85 84 84 90 89 85 86 85 86 86 85 85 85 85 85 87 88 90 89 90 89 88 87 90 87 84 86 86 87 84 84 85 85 87 84 88 89 86 85 95 88 87 88 90 90 89 90 87 85 85 84 85 86 92 91 88 87 88 87 85 87 87 87 88 87 87 87 87 87 87 87 90 94 91 88 95 92 93 98 93 95 101 101 100 106 106 103 103 100 97 88 89 89 91 92 91 92 92 91 90 92 94 96 98 98 100 103 102 102 101 101 102 102 103 100 100 102 99 97 92 101 98 103 102 105 104 105 106 105 105 105 105 109 107 107 108 107 107 104 104 105 104 106 107 103 103 106 103 111 113 111 110 110 109 97 91 91 91 92 91 91 92 92 91 95 98 99 96 97 100 99 99 98 98 99 100 98 98 99 96 93 101 98 0 0 0 0 0 0 0 0 0 0 0 0 0 0 0 0 0 0 0 0 0 0 0 0 0 0 0 0 0 0 0 0 0 0 0 0 0 0 0 0 0 0 0 0 0 0 0 0 0 0 0 0 0 0 0 0 0 0 0 0 0 0 0 0 0 0 0 0 0 0 0 0 0 0 0 0 0 0 0 0 0 0 0 0 0 0 0 0 0 0 0 0 0 0 0 0 0 0 0 0 0 0 0 0 0 0 0 0 0 0 0 0 0 0 0 0 0 0 0 0 0 0 0 0 0 0 0 0
0 0 0 0 0 0 0 0 0 0 0 0 0 0 0 0 0 0 0 0 0 0 0 0 0 0 0 0 0 0 0 0 0 0 0 0 0 0 0 0 0 0 0 0 0 0 0 0 0 0 0 0 0 0 0 80 80 80 80 81 83 87 88 88 85 93 90 96 93 82 83 91 83 89 85 81 82 82 84 83 84 83 84 80 82 83 83 86 86 84 83 86 93 93 84 84 84 96 84 91 84 83 84 90 92 91 85 84 87 90 87 87 88 89 88 85 84 84 84 84 85 89 85 85 85 85 86 87 86 86 85 85 85 88 87 90 88 89 86 85 85 86 87 87 87 86 86 87 85 85 84 84 84 84 85 84 84 84 85 86 85 86 85 85 85 85 84 84 88 92 93 89 86 87 88 90 86 88 88 85 85 86 87 87 87 87 87 88 93 95 93 90 95 92 93 99 100 100 107 103 103 106 107 105 104 98 97 88 89 89 91 92 93 92 91 91 89 92 91 96 98 99 99 102 105 104 102 104 102 103 103 104 100 101 94 92 92 93 96 102 102 105 104 105 105 105 104 104 106 107 108 106 107 106 106 106 105 107 108 109 107 106 107 109 109 112 115 110 112 112 111 103 94 93 91 92 92 91 92 92 92 92 94 95 93 94 97 99 97 98 96 98 98 96 96 96 94 92 98 95 0 0 0 0 0 0 0 0 0 0 0 0 0 0 0 0 0 0 0 0 0 0 0 0 0 0 0 0 0 0 0 0 0 0 0 0 0 0 0 0 0 0 0 0 0 0 0 0 0 0 0 0 0 0 0 0 0 0 0 0 0 0 0 0 0 0 0 0 0 0 0 0 0 0 0 0 0 0 0 0 0 0 0 0 0 0 0 0 0 0 0 0 0 0 0 0 0 0 0 0 0 0 0 0 0 0 0 0 0 0 0 0 0 0 0 0 0 0 0 0 0 0 0 0 0 0 0 0
